ncols         404
nrows         78
xllcorner     4681261
yllcorner     2523991
cellsize      1
NODATA_value  -9999
16 16 16 16 16 16 16 16 16 16 16 16 16 16 16 16 16 16 16 16 16 16 16 16 16 16 16 16 16 16 16 16 16 16 17 17 17 17 17 17 17 17 17 17 17 18 18 18 18 18 18 18 18 19 19 19 19 19 19 19 19 19 19 19 19 19 19 19 19 19 19 19 19 19 19 19 19 19 19 19 19 19 19 19 19 19 20 20 20 20 20 20 20 20 20 20 21 21 21 21 21 21 21 22 22 22 23 23 24 24 25 25 26 26 27 27 28 28 29 29 29 29 30 30 30 30 31 31 31 31 32 33 34 34 35 36 36 37 38 38 38 39 39 40 40 40 41 42 42 43 44 44 45 45 47 47 48 48 49 49 50 50 51 52 52 52 53 53 54 54 55 55 55 56 56 57 57 57 58 58 58 59 59 59 59 60 60 60 60 61 61 61 61 62 62 62 63 63 63 63 64 64 64 65 65 65 65 65 66 66 66 66 66 66 66 66 66 65 65 65 65 65 65 65 64 64 64 64 63 63 63 63 63 63 62 62 62 62 61 61 61 61 60 60 60 60 59 59 58 58 57 57 57 56 55 55 55 54 54 54 53 53 52 52 52 51 50 50 50 49 49 49 48 48 47 47 47 46 45 45 45 44 43 43 42 42 41 41 40 40 39 38 37 37 36 36 36 36 35 35 35 35 34 34 34 34 33 32 32 32 32 32 32 31 31 31 31 30 30 30 30 30 30 29 29 29 28 28 28 28 27 27 27 27 27 27 27 27 27 27 27 26 26 26 26 26 26 26 25 25 25 25 25 24 24 24 24 24 23 23 23 23 23 23 22 22 22 22 22 22 22 22 22 22 21 21 21 21 21 21 21 21 21 21 21 21 20 20 20 20 21 21 21 21 22 22 22 22 22 22 23 23 23 23
16 16 16 16 16 16 16 16 16 16 16 16 16 16 16 16 16 16 16 16 16 16 16 16 16 16 16 16 16 16 16 16 17 17 17 17 17 17 17 17 17 17 18 18 18 18 18 18 18 18 18 19 19 19 19 19 19 19 19 19 19 19 19 19 19 19 19 19 19 19 19 19 19 19 19 19 19 19 19 19 19 19 19 19 20 20 20 20 20 20 20 20 20 20 21 21 21 21 21 21 21 21 22 22 22 23 23 24 24 25 25 26 26 26 27 28 28 28 29 29 29 30 30 30 31 31 31 32 32 32 33 34 34 35 36 37 37 38 38 38 39 39 40 40 40 41 41 42 42 43 44 45 45 46 47 48 48 49 49 50 50 51 52 52 53 53 54 54 54 55 55 56 56 56 57 58 58 58 59 59 59 60 60 60 60 61 61 61 61 62 62 62 62 63 63 63 64 64 64 64 65 65 65 65 66 66 66 66 66 66 66 66 66 66 66 66 66 66 65 65 65 65 64 64 64 64 63 63 63 63 63 63 62 62 62 62 61 61 61 60 60 60 60 60 59 59 58 58 58 57 57 56 56 56 55 55 55 54 54 54 53 53 52 52 52 51 50 50 50 49 49 49 48 48 47 47 47 46 46 45 45 44 43 43 43 42 41 41 40 40 39 38 38 37 36 36 36 36 35 35 35 35 34 34 34 34 33 32 32 32 32 32 32 32 31 31 31 31 30 30 30 30 30 30 29 29 28 28 28 28 27 27 27 27 27 27 27 27 27 27 26 26 26 26 26 26 26 26 25 25 25 25 25 24 24 24 24 24 23 23 23 23 23 23 23 22 22 22 22 22 22 22 22 22 21 21 21 21 21 21 21 21 21 21 21 21 20 20 20 20 20 21 21 21 21 22 22 22 22 22 22 23 23 23
16 16 16 16 16 16 16 16 16 16 16 16 16 16 16 16 16 16 16 16 16 16 16 16 16 16 16 16 16 16 16 17 17 17 17 17 17 17 17 17 17 17 18 18 18 18 18 18 18 18 19 19 19 19 19 19 19 19 19 19 19 19 19 19 19 19 19 19 19 19 19 19 19 19 19 19 19 19 19 19 19 19 19 20 20 20 20 20 20 20 20 20 21 21 21 21 21 21 21 21 21 21 22 22 22 23 23 24 24 25 25 26 26 27 27 28 28 29 29 29 30 30 30 31 31 31 32 32 32 33 34 34 35 35 36 37 37 38 38 39 39 39 40 40 40 41 41 42 43 43 44 45 45 46 47 48 48 49 50 50 51 51 52 52 53 53 54 54 55 55 56 56 56 57 58 58 58 59 59 60 60 60 60 61 61 61 62 62 62 62 63 63 63 63 64 64 64 64 65 65 65 65 66 66 66 66 66 67 66 66 66 66 66 66 66 66 66 66 65 65 65 65 64 64 64 64 63 63 63 63 62 62 62 62 61 61 61 61 60 60 60 60 59 59 59 59 58 58 57 57 56 56 56 56 55 55 55 54 54 54 53 53 52 52 52 51 51 50 50 49 49 49 49 48 48 47 47 46 46 45 45 44 44 43 43 42 41 41 40 40 39 38 38 37 36 36 36 36 35 35 35 35 34 34 34 34 33 33 32 32 32 32 32 32 31 31 31 31 30 30 30 30 30 30 29 29 28 28 28 28 27 27 27 27 27 27 27 27 27 27 27 26 26 26 26 26 26 26 25 25 25 25 24 24 24 24 24 23 23 23 23 23 23 23 23 22 22 22 22 22 22 22 22 22 22 21 21 21 21 21 21 21 21 21 21 21 20 20 20 20 20 21 21 21 21 22 22 22 22 22 22 23 23 23
16 16 16 16 16 16 16 16 16 16 16 16 16 16 16 16 16 16 16 16 16 16 16 16 16 16 16 16 16 16 17 17 17 17 17 17 17 17 17 17 17 18 18 18 18 18 18 18 18 19 19 19 19 19 19 19 19 19 19 19 19 19 19 19 19 19 19 19 19 19 19 19 19 19 19 19 19 19 19 19 19 19 20 20 20 20 20 20 20 20 20 21 21 21 21 21 21 21 21 21 21 21 22 22 22 23 24 24 24 25 25 26 26 27 28 28 28 29 29 30 30 30 31 31 31 31 32 32 33 33 34 35 35 36 37 37 38 38 39 39 39 39 40 40 40 41 41 42 43 43 44 45 46 46 47 48 48 49 50 50 51 51 52 53 53 53 54 54 55 55 56 56 57 57 58 58 59 59 60 60 60 60 61 61 61 62 62 62 62 63 63 63 63 64 64 64 65 65 65 65 65 66 66 66 66 66 67 67 67 66 66 66 66 66 66 66 66 66 65 65 65 64 64 64 64 63 63 63 63 63 62 62 62 62 61 61 61 61 60 60 60 59 59 59 58 58 58 57 57 57 56 56 55 55 55 55 55 54 54 54 53 53 53 52 52 52 51 50 50 50 49 49 49 48 48 47 47 47 46 45 45 44 44 43 43 42 41 41 40 40 39 39 38 37 36 36 36 36 35 35 35 35 34 34 34 34 33 33 32 32 32 32 32 32 31 31 31 31 31 30 30 30 30 30 29 29 28 28 28 28 28 27 27 27 27 27 27 27 27 27 27 27 26 26 26 26 26 25 25 25 25 25 24 24 24 24 24 23 23 23 23 23 23 23 23 22 22 22 22 22 22 22 22 22 22 21 21 21 21 21 21 21 21 21 21 21 20 20 20 20 20 21 21 21 21 21 22 22 22 22 22 23 23 23
16 16 16 16 16 16 16 16 16 16 16 16 16 16 16 16 16 16 16 16 16 16 16 16 16 16 16 16 16 16 17 17 17 17 17 17 17 17 17 17 18 18 18 18 18 18 18 19 19 19 19 19 19 19 19 19 19 19 19 19 19 19 19 19 19 19 19 19 19 19 19 19 19 19 19 19 19 19 19 19 19 20 20 20 20 20 20 20 20 20 21 21 21 21 21 21 21 21 21 21 22 22 22 22 22 23 24 24 24 25 26 26 26 27 28 28 29 29 30 30 30 30 31 31 31 32 32 33 33 34 34 35 35 36 37 38 38 38 39 39 39 39 40 40 40 41 42 42 43 43 45 45 46 46 47 48 49 49 50 51 51 51 52 53 53 54 54 55 55 56 56 57 57 58 58 59 59 60 60 60 61 61 61 62 62 62 62 63 63 63 63 64 64 64 64 65 65 65 65 66 66 66 66 66 66 66 67 67 67 66 66 66 66 66 66 66 66 66 65 65 65 64 64 64 63 63 63 63 63 62 62 62 62 61 61 61 61 60 60 60 59 59 59 58 58 58 57 57 57 56 56 55 55 55 55 55 54 54 54 54 53 53 53 52 52 52 51 50 50 50 49 49 49 48 48 47 47 47 46 45 45 45 44 43 43 42 42 41 41 40 39 39 38 38 36 36 36 36 35 35 35 35 34 34 34 34 33 33 32 32 32 32 32 32 31 31 31 31 31 30 30 30 30 30 29 29 28 28 28 28 28 28 27 27 27 27 27 27 27 27 27 27 26 26 26 26 26 25 25 25 25 24 24 24 24 24 24 23 23 23 23 23 23 23 23 22 22 22 22 22 22 22 22 22 22 22 21 21 21 21 21 21 21 21 21 21 20 20 20 20 20 20 21 21 21 21 22 22 22 22 22 22 23 23
16 16 16 16 16 16 16 16 16 16 16 16 16 16 16 16 16 16 16 16 16 16 16 16 16 16 16 16 16 16 17 17 17 17 17 17 17 17 17 18 18 18 18 18 18 18 19 19 19 19 19 19 19 19 19 19 19 19 19 19 19 19 19 19 19 19 19 19 19 19 19 19 19 19 19 19 19 20 20 20 20 20 20 20 20 20 21 21 21 21 21 21 21 21 21 22 22 22 22 22 22 22 22 22 23 23 24 24 24 25 26 26 27 27 28 29 29 30 30 30 31 31 31 32 32 32 33 33 34 34 35 36 36 37 38 38 38 38 39 39 39 39 40 40 40 41 42 42 43 44 45 45 46 47 48 48 49 49 50 51 51 52 53 53 53 54 55 55 56 56 57 57 58 58 59 60 60 60 61 61 61 62 62 62 63 63 63 63 64 64 64 64 65 65 65 65 65 66 66 66 66 66 66 66 66 66 67 67 67 66 66 66 66 66 66 66 66 65 65 64 64 64 63 63 63 63 62 62 62 62 62 61 61 61 60 60 60 60 59 59 59 59 58 58 57 57 56 56 56 55 55 55 54 54 54 54 54 54 54 53 53 53 53 52 52 52 51 51 50 50 49 49 49 48 48 47 47 47 46 45 45 45 44 43 43 43 42 41 41 40 40 39 39 38 37 36 36 36 36 35 35 35 34 34 34 34 33 33 33 32 32 32 32 32 32 31 31 31 31 31 30 30 30 29 29 29 28 28 28 28 28 28 28 27 27 27 27 27 27 27 27 27 26 26 26 26 26 25 25 25 25 24 24 24 24 23 23 23 23 23 23 23 23 23 22 22 22 22 22 22 22 22 22 22 22 22 21 21 21 21 21 21 21 21 21 21 20 20 20 20 20 20 21 21 21 21 22 22 22 22 22 22 23 23
16 16 16 16 16 16 16 16 16 16 16 16 16 16 16 16 16 16 16 16 16 16 16 16 16 16 16 16 16 17 17 17 17 17 17 17 17 17 18 18 18 18 18 18 18 18 19 19 19 19 19 19 19 19 19 19 19 19 19 19 19 19 19 19 19 19 19 19 19 19 19 19 19 19 19 20 20 20 20 20 20 20 20 20 20 21 21 21 21 21 21 21 21 21 22 22 22 22 22 22 22 22 22 22 23 23 24 24 25 25 26 26 27 27 28 29 29 30 30 31 31 31 32 32 32 32 33 33 34 34 35 36 36 37 38 38 38 39 39 39 39 39 40 40 40 41 42 43 43 44 45 46 46 47 48 48 49 50 51 51 51 52 53 53 54 54 55 55 56 56 57 58 58 59 60 60 60 61 61 62 62 62 63 63 63 63 64 64 64 64 65 65 65 65 65 66 66 66 66 66 66 66 66 66 66 67 67 67 66 66 66 66 66 66 66 66 65 65 65 64 64 64 63 63 63 63 62 62 62 62 61 61 61 61 60 60 60 60 59 59 59 58 58 57 57 57 56 56 55 55 54 54 54 54 54 54 54 54 53 53 53 53 53 52 52 52 51 51 50 50 49 49 49 49 48 47 47 47 46 46 45 45 44 44 43 43 42 41 41 41 40 39 39 38 37 37 36 36 36 36 35 35 34 34 34 34 33 33 33 33 32 32 32 32 32 32 31 31 31 30 30 30 30 30 29 29 28 28 28 28 28 28 28 28 27 27 27 27 27 27 27 27 26 26 26 26 26 25 25 25 25 24 24 24 24 23 23 23 23 23 23 23 23 23 22 22 22 22 22 22 22 22 22 22 22 22 21 21 21 21 21 21 21 21 21 21 20 20 20 20 20 20 21 21 21 21 21 22 22 22 22 22 22 22
16 16 16 16 16 16 16 16 16 16 16 16 16 16 16 16 16 16 16 16 16 16 16 16 16 16 16 16 16 17 17 17 17 17 17 17 17 17 18 18 18 18 18 18 18 19 19 19 19 19 19 19 19 19 19 19 19 19 19 19 19 19 19 19 19 19 19 19 19 19 19 19 19 19 20 20 20 20 20 20 20 20 21 21 21 21 21 21 21 21 21 21 21 22 22 22 22 22 22 22 22 22 22 23 23 23 24 24 25 25 26 26 27 27 28 29 29 30 30 31 31 31 32 32 32 33 33 34 34 34 35 36 36 37 38 38 38 39 39 39 39 39 40 40 40 41 42 43 43 44 45 46 46 47 48 49 49 50 51 51 52 52 53 53 54 54 55 56 56 56 57 58 58 59 60 60 61 61 62 62 62 62 63 63 63 64 64 64 64 65 65 65 65 65 66 66 66 66 66 66 66 66 66 67 67 67 67 66 66 66 66 66 66 66 66 66 65 65 64 64 64 63 63 63 63 63 62 62 62 62 61 61 61 60 60 60 59 59 59 58 58 58 57 57 57 56 56 55 55 54 54 54 53 53 53 53 53 53 53 53 53 53 52 52 52 52 51 51 50 50 49 49 49 49 48 48 47 47 46 46 45 45 44 44 43 43 42 42 41 41 40 39 39 38 37 37 37 36 36 36 36 35 35 34 34 34 34 33 33 33 32 32 32 32 32 32 32 31 31 30 30 30 30 30 29 29 28 28 28 28 28 28 28 28 27 27 27 27 27 27 27 27 26 26 26 26 26 25 25 25 24 24 24 24 23 23 23 23 23 23 23 23 23 23 22 22 22 22 22 22 22 22 22 22 22 21 21 21 21 21 21 21 21 21 21 21 20 20 20 20 20 20 21 21 21 21 21 22 22 22 22 22 22 22
16 16 16 16 16 16 16 16 16 16 16 16 16 16 16 16 16 16 16 16 16 16 16 16 16 16 16 16 17 17 17 17 17 17 17 17 17 17 18 18 18 18 18 18 18 19 19 19 19 19 19 19 19 19 19 19 19 19 19 19 19 19 19 19 19 19 19 19 19 19 19 19 19 20 20 20 20 20 20 20 20 21 21 21 21 21 21 21 21 21 22 22 22 22 22 22 22 22 22 22 22 22 23 23 23 23 24 24 25 25 26 26 27 27 28 29 30 30 31 31 31 32 32 32 32 33 33 34 34 35 36 36 37 37 38 38 38 39 39 39 39 39 40 40 40 41 42 43 43 44 45 46 46 47 48 49 49 50 51 51 52 52 53 53 54 54 55 56 56 57 58 58 59 59 60 61 61 61 62 62 63 63 63 64 64 64 64 65 65 65 65 65 66 66 66 66 66 66 66 67 67 67 67 67 67 67 67 66 66 66 66 66 66 66 66 65 65 65 64 64 64 63 63 63 63 62 62 62 61 61 61 61 60 60 60 59 59 59 58 58 58 58 57 57 56 56 55 55 54 54 53 53 53 53 53 53 53 53 53 53 52 52 52 52 52 52 51 51 50 50 50 49 49 49 48 48 47 47 46 46 45 45 44 44 43 43 42 42 41 41 40 40 39 39 38 37 37 37 36 36 36 36 35 35 34 34 34 34 33 33 33 33 33 33 32 32 32 32 31 30 30 30 30 30 30 29 29 28 28 28 28 28 28 28 27 27 27 27 27 27 27 27 26 26 26 26 26 25 25 25 24 24 24 24 23 23 23 23 23 23 23 23 23 22 22 22 22 22 22 22 22 22 22 22 22 21 21 21 21 21 21 21 21 21 21 21 20 20 20 20 20 20 20 21 21 21 21 22 22 22 22 22 22 22
16 16 16 16 16 16 16 16 16 16 16 16 16 16 16 16 16 16 16 16 16 16 16 16 16 16 16 17 17 17 17 17 17 17 17 17 17 17 18 18 18 18 18 18 19 19 19 19 19 19 19 19 19 19 19 19 19 19 19 19 19 19 19 19 19 19 19 19 19 20 20 20 20 20 20 20 20 20 21 21 21 21 21 21 21 21 22 22 22 22 22 22 22 22 22 22 22 23 23 23 23 23 23 23 23 23 24 24 25 25 26 27 27 28 29 29 30 30 31 31 31 32 32 32 33 33 34 34 34 35 36 36 37 37 38 38 38 39 39 39 39 39 40 40 41 41 42 43 44 44 46 46 47 47 49 49 50 50 51 52 52 52 53 54 54 55 56 56 56 57 58 59 59 60 61 61 61 62 63 63 64 64 64 64 64 65 65 65 65 66 66 66 66 66 67 67 67 67 67 67 67 67 67 67 67 67 67 66 66 66 66 66 66 66 65 65 65 65 64 64 63 63 63 62 62 62 62 61 61 61 60 60 60 60 59 59 59 58 58 58 57 57 56 56 56 55 55 54 54 53 52 52 52 52 52 52 52 52 52 52 52 52 51 51 51 51 51 50 50 50 49 49 49 49 48 48 47 47 46 46 45 45 44 44 44 43 42 42 42 41 41 40 40 39 38 38 38 37 37 37 36 36 36 35 35 35 34 34 34 34 34 34 34 34 33 33 33 32 31 31 30 30 30 30 30 30 29 29 28 28 28 28 28 28 28 28 27 27 27 27 27 27 26 26 26 26 25 25 25 25 24 24 24 24 23 23 23 23 23 23 23 23 22 22 22 22 22 22 22 22 22 22 22 22 22 21 21 21 21 21 21 21 21 21 21 21 20 20 20 20 20 20 20 21 21 21 21 21 22 22 22 22 22 22
16 16 16 16 16 16 16 16 16 16 16 16 16 16 16 16 16 16 16 16 16 16 16 16 16 16 16 17 17 17 17 17 17 17 17 17 17 18 18 18 18 18 18 18 19 19 19 19 19 19 19 19 19 19 19 19 19 19 19 19 19 19 19 19 19 19 19 20 20 20 20 20 20 20 20 20 21 21 21 21 21 21 21 22 22 22 22 22 22 22 22 22 22 22 23 23 23 23 23 23 23 23 23 23 24 24 24 25 25 26 26 27 27 28 29 29 30 30 31 31 31 32 32 32 33 33 34 34 34 35 36 36 37 37 38 38 38 39 39 39 39 39 40 40 41 41 43 43 44 44 46 46 47 48 49 49 50 51 51 52 52 52 53 54 54 55 56 56 57 57 58 59 59 60 61 61 62 62 63 64 64 64 64 64 65 65 65 65 66 66 66 66 66 67 67 67 67 67 67 67 67 67 67 67 67 67 67 66 66 66 66 66 66 66 65 65 65 64 64 64 63 63 63 62 62 62 61 61 61 61 60 60 60 59 59 59 58 58 58 57 57 57 56 56 55 55 54 54 53 53 52 52 52 51 52 52 52 52 52 52 51 51 51 51 51 51 50 50 50 50 49 49 49 49 48 48 47 47 46 46 45 45 44 44 44 43 43 42 42 42 41 40 40 39 39 38 38 38 37 37 37 36 36 36 35 35 35 35 34 34 34 34 34 34 34 33 33 33 31 31 30 30 30 30 30 30 29 29 29 28 28 28 28 28 28 28 28 27 27 27 27 27 26 26 26 26 25 25 25 25 24 24 24 23 23 23 23 23 23 23 23 23 22 22 22 22 22 22 22 22 22 22 22 22 22 21 21 21 21 21 21 21 21 21 21 21 20 20 20 20 20 20 20 21 21 21 21 21 22 22 22 22 22 22
16 16 16 16 16 16 16 16 16 16 16 16 16 16 16 16 16 16 16 16 16 16 16 16 16 16 17 17 17 17 17 17 17 17 17 17 17 18 18 18 18 18 18 18 19 19 19 19 19 19 19 19 19 19 19 19 19 19 19 19 19 19 19 19 19 19 20 20 20 20 20 20 20 20 21 21 21 21 21 21 21 21 22 22 22 22 22 22 22 22 23 23 23 23 23 23 23 23 23 23 23 23 24 24 24 24 25 25 25 26 27 27 27 28 29 29 30 30 31 31 32 32 32 32 33 33 34 34 34 35 36 36 37 37 38 38 39 39 39 39 39 39 40 40 41 41 43 43 44 45 46 46 47 48 49 50 50 51 51 52 52 52 53 54 54 55 56 56 57 57 58 59 59 60 61 61 62 62 63 64 64 64 64 65 65 65 65 66 66 66 66 67 67 67 67 67 67 67 67 67 67 67 67 67 67 67 67 66 66 66 66 66 66 66 65 65 65 64 64 63 63 63 62 62 62 62 61 61 61 60 60 60 59 59 59 58 58 58 57 57 57 56 56 56 55 55 54 54 53 53 52 52 51 51 51 51 51 51 51 51 51 51 51 51 50 50 50 50 50 49 49 49 49 49 48 48 47 47 46 46 46 45 44 44 44 43 43 42 42 42 41 41 40 40 39 39 38 38 37 37 37 37 36 36 36 35 35 35 35 35 35 35 35 35 34 34 34 33 32 31 31 31 30 30 30 30 29 29 29 28 28 28 28 28 28 28 28 27 27 27 27 27 26 26 26 26 25 25 25 25 24 24 23 23 23 23 23 23 23 23 23 23 22 22 22 22 22 22 22 22 22 22 22 22 21 21 21 21 21 21 21 21 21 21 21 21 20 20 20 20 20 20 20 21 21 21 21 21 22 22 22 22 22 22
16 16 16 16 16 16 16 16 16 16 16 16 16 16 16 16 16 16 16 16 16 16 16 16 16 16 17 17 17 17 17 17 17 17 17 17 18 18 18 18 18 18 18 18 19 19 19 19 19 19 19 19 19 19 19 19 19 19 19 19 19 19 19 20 20 20 20 20 20 20 20 21 21 21 21 21 21 21 21 21 21 22 22 22 22 22 23 23 23 23 23 23 23 23 23 23 23 23 23 23 23 23 24 24 24 24 25 25 25 26 27 27 27 28 29 29 30 30 31 31 32 32 32 32 33 33 34 34 34 35 36 36 36 37 38 39 39 39 39 39 39 39 40 40 41 41 43 43 44 45 46 47 47 48 49 50 51 51 51 52 52 52 53 54 54 55 56 56 57 57 58 59 59 60 61 61 62 62 63 64 64 64 65 65 65 65 66 66 66 66 67 67 67 67 67 67 67 68 68 68 68 67 67 67 67 67 67 67 66 66 66 66 66 66 65 65 65 64 64 63 63 63 62 62 62 61 61 61 60 60 60 59 59 59 58 58 58 58 57 57 56 56 56 55 55 55 54 53 53 52 52 51 51 51 51 51 51 51 51 51 51 51 50 50 50 50 50 50 49 49 49 49 49 49 48 48 48 47 46 46 46 45 45 44 44 44 43 43 42 42 41 41 40 40 39 39 38 38 38 37 37 37 36 36 36 36 35 35 35 35 35 35 35 35 35 34 34 34 32 32 31 31 31 31 30 30 29 29 29 29 28 28 28 28 28 28 28 27 27 27 27 27 26 26 26 26 25 25 25 24 24 24 23 23 23 23 23 23 23 23 23 22 22 22 22 22 22 22 22 22 22 22 22 22 21 21 21 21 21 21 21 21 21 21 21 21 20 20 20 20 20 20 20 20 21 21 21 21 21 22 22 22 22 22
16 16 16 16 16 16 16 16 16 16 16 16 16 16 16 16 16 16 16 16 16 16 16 16 17 17 17 17 17 17 17 17 17 17 17 18 18 18 18 18 18 18 18 19 19 19 19 19 19 19 19 19 19 19 19 19 19 19 20 20 20 20 20 20 20 20 20 20 21 21 21 21 21 21 21 21 21 22 22 22 22 22 22 22 23 23 23 23 23 23 23 24 24 24 24 24 24 24 24 24 24 24 24 24 25 25 25 25 26 26 27 27 27 28 29 29 30 30 31 31 32 32 32 33 33 33 34 34 34 35 35 36 36 37 38 39 39 39 39 39 39 39 40 40 41 42 43 44 44 45 46 47 47 48 49 50 50 51 51 51 52 52 54 54 55 55 56 57 57 58 59 59 60 60 61 61 62 62 63 63 64 64 65 65 65 66 66 66 67 67 67 67 67 67 68 68 68 68 68 68 68 68 67 67 67 67 67 67 67 67 66 66 66 66 65 65 64 64 63 63 63 63 62 62 61 61 60 60 60 60 59 59 58 58 58 57 57 57 56 56 56 56 55 55 54 54 53 53 53 52 52 51 51 51 51 51 51 51 50 50 50 50 50 50 50 49 49 49 49 49 49 49 49 49 48 48 47 47 46 46 46 45 45 44 44 44 43 43 43 42 42 41 41 40 40 39 39 38 38 38 38 37 37 37 36 36 36 36 36 36 35 36 36 35 35 35 35 34 33 33 33 32 31 31 31 30 30 29 29 29 29 29 28 28 28 28 28 27 27 27 27 26 26 26 26 25 25 25 24 24 24 23 23 23 23 23 23 23 23 23 22 22 22 22 22 22 22 22 22 22 22 22 22 22 21 21 21 21 21 21 21 21 21 21 21 20 20 20 20 20 20 20 20 20 21 21 21 21 21 22 22 22 22 22
16 16 16 16 16 16 16 16 16 16 16 16 16 16 16 16 16 16 16 16 16 16 17 17 17 17 17 17 17 17 17 17 17 17 18 18 18 18 18 18 18 18 19 19 19 19 19 19 19 19 19 19 19 19 19 19 19 20 20 20 20 20 20 20 20 20 21 21 21 21 21 21 21 21 22 22 22 22 22 22 22 22 23 23 23 23 23 23 23 24 24 24 24 24 24 24 24 24 24 24 24 24 24 25 25 25 25 26 26 26 27 27 27 28 29 29 30 30 31 31 32 32 32 33 33 33 33 34 34 35 35 36 36 37 38 39 39 39 39 39 39 40 40 40 41 42 43 44 44 45 46 47 48 48 49 50 50 51 51 51 52 52 54 54 55 55 56 57 57 58 59 59 60 60 61 61 62 62 63 63 64 64 65 65 65 66 66 66 67 67 67 67 68 68 68 68 68 68 68 68 68 68 68 67 67 67 67 67 67 67 66 66 66 66 65 65 64 64 63 63 63 62 62 61 61 61 60 60 60 59 59 58 58 58 57 57 57 57 56 56 56 55 55 55 54 54 53 53 52 52 51 51 51 51 51 50 50 50 50 50 50 50 49 49 49 49 49 49 49 49 49 49 49 49 48 48 47 47 46 46 46 45 45 44 44 44 43 43 43 42 42 41 41 41 40 39 39 39 38 38 38 38 37 37 37 36 36 36 36 36 36 36 36 35 35 35 35 34 34 33 33 32 32 31 31 31 30 30 29 29 29 29 28 28 28 28 28 27 27 27 27 26 26 26 25 25 25 25 24 24 24 23 23 23 23 23 23 23 23 23 22 22 22 22 22 22 22 22 22 22 22 22 22 22 21 21 21 21 21 21 21 21 21 21 21 20 20 20 20 20 20 20 20 20 21 21 21 21 21 21 22 22 22 22
16 16 16 16 16 16 16 16 16 16 16 16 16 16 16 16 16 16 16 16 16 16 17 17 17 17 17 17 17 17 17 17 17 17 18 18 18 18 18 18 18 18 19 19 19 19 19 19 19 19 19 19 19 19 19 20 20 20 20 20 20 20 21 21 21 21 21 21 21 21 21 21 22 22 22 22 22 22 22 22 22 23 23 23 23 23 23 24 24 24 24 24 24 24 24 24 24 24 24 24 24 24 25 25 25 25 25 26 26 26 27 27 27 28 29 29 30 30 31 31 32 32 32 33 33 33 33 34 34 35 35 36 36 37 38 39 39 39 39 39 40 40 40 40 41 42 43 44 44 45 46 47 48 48 49 50 50 51 51 51 52 53 54 54 55 55 56 57 57 58 59 59 60 60 61 61 62 62 63 63 64 64 65 65 66 66 66 67 67 67 67 68 68 68 68 68 68 68 68 68 68 68 68 67 67 67 67 67 67 67 66 66 66 66 65 65 64 64 63 63 63 62 62 61 61 61 60 60 59 59 58 58 58 57 57 57 56 56 56 55 55 55 55 54 54 53 53 52 52 52 51 51 51 51 50 50 50 50 50 50 50 49 49 49 49 49 49 49 49 48 48 48 48 48 48 47 47 47 46 46 45 45 45 44 44 44 43 43 43 43 42 42 41 41 40 40 39 39 38 38 38 38 37 37 37 37 36 36 36 36 36 36 36 35 35 35 34 34 34 34 33 33 32 31 31 31 30 30 29 29 29 29 29 28 28 28 27 27 27 27 27 26 26 26 25 25 25 24 24 24 23 23 23 23 23 23 23 23 23 22 22 22 22 22 22 22 22 22 22 22 22 22 22 22 21 21 21 21 21 21 21 21 21 21 21 20 20 20 20 20 20 20 20 20 20 21 21 21 21 21 22 22 22 22
16 16 16 16 16 16 16 16 16 16 16 16 16 16 16 16 16 16 16 16 17 17 17 17 17 17 17 17 17 17 17 17 18 18 18 18 18 18 18 18 18 18 19 19 19 19 19 19 19 19 19 19 19 20 20 20 20 20 20 20 20 21 21 21 21 21 21 21 21 21 22 22 22 22 22 22 22 22 23 23 23 23 23 23 23 23 24 24 24 24 24 25 25 25 25 25 24 24 25 25 25 25 25 25 25 25 26 26 26 26 27 27 28 28 29 30 30 30 31 32 32 32 32 32 33 33 33 34 34 35 35 36 37 37 39 39 39 39 39 39 40 40 40 41 41 42 43 44 44 45 46 47 48 48 49 50 50 51 51 52 52 53 54 54 55 55 56 57 57 58 59 59 60 60 61 61 62 62 63 63 64 64 65 65 66 66 67 67 67 67 68 68 68 68 68 68 68 68 68 68 68 68 68 67 67 67 67 67 67 66 66 66 66 66 65 65 64 64 63 63 63 62 61 61 61 60 60 59 59 59 58 58 57 57 57 56 56 56 55 55 55 55 54 54 53 53 52 52 52 51 51 51 51 50 50 50 50 50 49 49 49 49 49 49 49 49 48 48 48 48 48 48 48 48 47 47 47 46 46 46 45 45 45 45 44 44 44 43 43 43 42 42 41 41 40 40 39 39 39 38 38 38 37 37 37 37 36 36 36 36 36 36 35 35 35 35 34 34 34 34 33 33 32 32 31 31 30 30 30 30 29 29 29 28 28 28 27 27 27 27 26 26 26 26 25 25 25 24 24 24 23 23 23 23 23 23 23 23 23 22 22 22 22 22 22 22 22 22 22 22 22 22 22 21 21 21 21 21 21 21 21 21 21 21 20 20 20 20 20 20 20 20 20 20 20 21 21 21 21 21 22 22 22 22
16 16 16 16 16 16 16 16 16 16 16 16 16 16 16 16 16 17 17 17 17 17 17 17 17 17 17 17 17 17 18 18 18 18 18 18 18 18 18 18 18 19 19 19 19 19 19 19 19 19 20 20 20 20 20 20 20 20 21 21 21 21 21 21 22 22 22 22 22 22 22 22 22 22 22 22 23 23 23 23 23 23 24 24 24 24 24 24 25 25 25 25 25 25 25 25 25 25 25 25 25 25 25 25 26 26 26 26 26 26 27 27 28 28 29 30 30 30 31 32 32 32 32 32 33 33 33 33 34 35 36 36 37 37 39 39 39 39 40 40 40 40 40 41 41 42 43 44 45 45 47 47 48 49 50 50 51 51 51 52 52 53 54 54 55 55 56 57 57 58 59 59 60 60 61 62 62 62 63 64 64 64 65 66 66 66 67 67 67 68 68 68 68 68 69 69 69 69 69 68 68 68 68 68 68 67 67 67 67 66 66 66 66 66 65 64 64 64 63 63 62 62 61 61 60 60 59 59 58 58 57 57 57 56 56 56 55 55 54 54 54 54 53 53 53 52 52 51 51 51 50 50 50 50 50 49 49 49 49 49 49 49 48 48 48 48 48 48 48 48 47 47 47 47 47 46 46 46 45 45 45 45 44 44 44 44 44 43 43 43 42 42 42 41 41 40 40 40 39 39 38 38 38 37 37 37 37 36 36 36 36 36 35 35 35 35 34 34 34 34 33 33 32 32 32 31 31 30 30 30 29 29 29 28 28 28 27 27 27 27 26 26 26 26 25 25 24 24 24 24 23 23 23 23 23 23 23 23 22 22 22 22 22 22 22 22 22 22 22 22 22 22 21 21 21 21 21 21 21 21 21 21 21 21 20 20 20 20 20 20 20 20 20 20 20 21 21 21 21 21 21 22 22 22
16 16 16 16 16 16 16 16 16 16 16 16 16 16 16 17 17 17 17 17 17 17 17 17 17 17 17 17 18 18 18 18 18 18 18 18 18 18 18 19 19 19 19 19 19 19 19 19 19 20 20 20 20 20 20 21 21 21 21 21 21 21 22 22 22 22 22 22 22 22 22 22 23 23 23 23 23 23 23 23 24 24 24 24 24 24 25 25 25 25 25 26 26 26 25 25 25 25 25 25 25 25 25 26 26 26 26 26 26 27 27 27 28 28 29 30 30 30 31 32 32 32 32 32 32 33 33 33 34 35 36 36 37 38 39 39 39 39 40 40 40 40 40 41 41 42 43 44 45 45 47 47 48 49 50 51 51 51 51 52 52 53 54 54 55 55 56 57 57 58 59 59 60 60 61 62 62 62 63 64 64 65 65 66 66 66 67 67 68 68 68 68 68 69 69 69 69 69 69 69 68 68 68 68 68 67 67 67 66 66 66 66 66 66 65 64 64 64 63 62 62 62 61 60 60 60 59 58 58 58 57 57 56 56 55 55 55 55 54 54 53 53 53 52 52 52 51 51 51 51 50 50 50 50 49 49 49 49 48 48 48 48 48 48 48 48 48 47 47 47 47 47 47 47 46 46 46 46 45 45 45 45 44 44 44 44 44 43 43 43 42 42 42 41 41 41 40 40 39 39 39 38 38 38 37 37 37 37 36 36 36 36 35 35 35 35 34 34 34 34 33 33 32 32 32 31 31 31 30 30 29 29 29 28 28 27 27 27 27 27 26 26 26 25 25 25 24 24 24 24 23 23 23 23 23 23 23 23 22 22 22 22 22 22 22 22 22 22 22 22 22 22 21 21 21 21 21 21 21 21 21 21 21 21 20 20 20 20 20 20 20 20 20 20 20 21 21 21 21 21 21 22 22 22
16 16 16 16 16 16 16 16 16 16 16 16 16 17 17 17 17 17 17 17 17 17 17 17 17 17 17 18 18 18 18 18 18 18 18 18 18 18 19 19 19 19 19 19 19 19 20 20 20 20 20 20 20 20 21 21 21 21 21 21 21 22 22 22 22 22 22 23 23 23 23 23 23 23 23 23 23 23 24 24 24 24 24 24 25 25 25 25 25 25 26 26 26 26 26 26 26 26 26 26 26 26 26 26 26 26 26 26 26 27 27 27 28 28 29 30 30 30 31 31 32 32 32 32 33 33 33 33 34 35 36 36 37 38 39 39 39 40 40 40 40 40 41 41 41 42 43 44 45 45 47 47 48 49 50 51 51 51 52 52 52 53 54 54 55 55 56 57 57 58 59 59 60 60 61 62 62 63 63 64 64 65 66 66 66 67 67 67 68 68 68 69 69 69 69 69 69 69 69 69 68 68 68 68 68 67 67 67 66 66 66 66 66 66 65 64 64 64 63 62 62 61 61 60 60 59 58 58 58 57 56 56 56 56 55 55 54 54 53 53 53 53 52 52 52 51 51 51 50 50 50 50 50 49 49 49 49 48 48 48 48 48 48 48 48 48 47 47 47 47 47 46 46 46 46 46 45 45 45 45 44 44 44 44 44 44 43 43 43 43 42 42 42 41 41 41 40 40 39 39 39 38 38 38 37 37 37 37 36 36 36 36 35 35 35 35 34 34 34 34 34 33 33 32 32 32 31 31 30 30 29 29 29 28 28 27 27 27 27 27 26 26 26 25 25 25 24 24 24 24 23 23 23 23 23 23 23 23 22 22 22 22 22 22 22 22 22 22 22 22 22 21 21 21 21 21 21 21 21 21 21 21 21 20 20 20 20 20 20 20 20 20 20 20 20 20 21 21 21 21 21 22 22 22
16 16 16 16 16 16 16 16 16 16 16 17 17 17 17 17 17 17 17 17 17 17 17 17 17 17 18 18 18 18 18 18 18 18 18 18 18 19 19 19 19 19 19 19 19 20 20 20 20 20 20 20 20 21 21 21 21 21 21 22 22 22 22 22 22 23 23 23 23 23 23 23 23 23 23 23 23 24 24 24 24 24 25 25 25 25 25 25 25 26 26 26 26 26 26 26 26 26 26 26 26 26 26 26 26 26 26 26 26 27 27 27 28 28 29 30 30 30 31 31 32 32 32 32 33 33 33 33 34 35 36 37 37 38 39 39 39 40 40 40 40 40 40 41 41 42 43 44 45 45 47 47 48 49 50 51 51 51 52 52 53 53 54 55 55 56 57 57 58 58 59 60 60 61 61 62 62 63 64 64 64 65 66 66 66 67 67 68 68 68 69 69 69 69 69 69 69 69 69 69 68 68 68 68 68 67 67 66 66 66 66 66 66 66 65 64 64 63 63 62 62 61 60 60 60 59 58 58 57 57 56 56 55 55 55 54 54 54 53 53 53 52 52 52 51 51 50 50 50 50 49 49 49 49 49 48 48 48 48 48 48 48 48 47 47 47 47 47 47 47 46 46 46 46 45 45 45 45 45 44 44 44 44 44 43 43 43 43 43 42 42 42 41 41 41 41 40 40 39 39 39 39 38 38 38 37 37 37 36 36 36 36 35 35 35 35 35 34 34 34 34 33 33 32 32 32 31 31 30 30 29 29 28 28 28 27 27 27 27 27 26 26 26 25 25 25 24 24 24 24 23 23 23 23 23 23 23 23 22 22 22 22 22 22 22 22 22 22 22 22 22 21 21 21 21 21 21 21 21 21 21 21 21 20 20 20 20 20 20 20 20 20 20 20 20 20 21 21 21 21 21 21 22 22
16 16 16 16 16 16 16 16 16 17 17 17 17 17 17 17 17 17 17 17 17 17 18 18 18 18 18 18 18 18 18 18 18 19 19 19 19 19 19 19 19 19 20 20 20 20 20 20 20 20 21 21 21 21 21 22 22 22 22 22 22 22 23 23 23 23 24 24 24 24 24 24 24 24 24 24 24 25 25 25 25 25 25 25 25 26 26 26 26 26 26 26 26 26 26 26 26 26 26 26 26 26 26 26 26 26 26 26 27 27 27 28 28 28 29 30 30 30 31 31 31 32 32 32 33 33 33 34 34 35 36 37 37 38 39 39 40 40 40 40 40 40 41 41 41 42 43 44 45 45 47 47 48 49 50 51 51 52 52 52 53 53 54 55 55 56 57 57 58 58 59 60 60 61 62 62 63 63 64 64 65 65 66 66 67 67 68 68 68 68 69 69 69 70 70 70 70 69 69 69 68 68 68 68 67 67 67 66 66 66 66 66 66 65 64 64 64 63 62 62 61 61 60 60 59 59 58 57 56 56 55 55 54 54 54 54 53 53 52 52 52 52 51 51 50 50 50 49 49 49 49 48 48 48 48 47 47 47 47 47 47 47 47 47 47 47 47 46 46 46 45 45 45 45 45 44 44 44 44 44 44 43 43 43 43 43 42 42 42 42 41 41 41 41 40 40 40 40 40 39 39 39 38 38 38 37 37 37 37 36 36 36 36 35 35 35 35 35 34 34 34 33 33 33 32 32 31 31 30 30 29 28 28 28 27 27 27 27 27 26 26 26 26 25 25 25 24 24 24 24 23 23 23 23 23 23 23 23 22 22 22 22 22 22 22 22 22 22 22 22 21 21 21 21 21 21 21 21 21 21 21 21 20 20 20 20 20 20 20 20 20 20 20 20 20 20 21 21 21 21 21 21 22 22
16 16 16 16 16 16 16 16 17 17 17 17 17 17 17 17 17 17 17 17 17 17 18 18 18 18 18 18 18 18 18 18 19 19 19 19 19 19 19 19 19 19 20 20 20 20 20 21 21 21 21 21 21 21 22 22 22 22 22 22 22 23 23 23 23 24 24 24 24 24 24 24 25 25 25 25 25 25 25 25 25 25 26 26 26 26 26 26 26 26 26 26 26 27 27 27 26 26 26 26 26 26 26 26 26 26 26 27 27 27 27 28 28 28 29 30 30 30 31 31 31 32 32 32 33 33 33 34 34 35 36 37 38 38 39 39 40 40 40 40 40 40 41 41 41 42 43 44 45 45 47 47 48 49 50 51 51 52 52 53 53 53 54 55 55 56 57 57 58 58 59 60 60 61 62 62 63 63 64 65 65 65 66 67 67 67 68 68 68 69 69 69 70 70 70 70 70 69 69 69 68 68 68 68 67 67 67 66 66 66 66 66 65 65 64 64 64 63 62 62 61 61 60 59 59 58 57 57 56 55 55 54 54 54 54 53 53 53 52 52 52 51 51 50 50 50 49 49 49 48 48 48 48 48 47 47 47 47 47 47 47 47 47 47 47 47 46 46 46 45 45 45 45 44 44 44 44 44 43 43 43 43 43 43 42 42 42 42 42 42 41 41 41 41 40 40 40 40 40 39 39 39 38 38 38 37 37 37 37 36 36 36 36 36 35 35 35 35 34 34 34 34 33 33 32 32 31 31 30 30 29 28 28 28 27 27 27 27 27 26 26 26 26 25 25 25 24 24 24 24 23 23 23 23 23 23 23 23 22 22 22 22 22 22 22 22 22 22 22 22 21 21 21 21 21 21 21 21 21 21 21 21 20 20 20 20 20 20 20 20 20 20 20 20 20 20 21 21 21 21 21 21 21 22
16 16 16 16 16 16 17 17 17 17 17 17 17 17 17 17 17 17 17 17 17 18 18 18 18 18 18 18 18 18 18 19 19 19 19 19 19 19 19 19 20 20 20 20 20 20 21 21 21 21 21 21 21 21 22 22 22 22 22 23 23 23 23 24 24 24 25 25 25 25 25 25 25 25 26 26 26 26 26 26 26 26 26 26 26 26 26 26 26 26 27 27 27 27 27 27 27 27 27 27 27 27 27 27 27 27 27 27 27 27 27 28 28 29 29 30 30 30 31 31 31 32 32 32 33 33 34 34 35 35 37 37 38 38 39 40 40 40 40 41 41 41 41 41 41 42 43 44 45 45 47 47 48 49 50 50 51 51 52 53 53 54 54 55 55 56 57 57 58 58 59 60 60 61 62 62 63 63 64 65 65 66 66 67 67 67 68 68 69 69 69 70 70 70 70 70 70 69 69 69 68 68 68 68 67 67 66 66 66 66 66 66 65 65 64 64 63 63 62 62 61 61 60 59 59 58 57 56 56 55 55 54 54 54 53 53 53 53 52 51 51 51 50 50 50 49 49 48 48 48 48 47 47 47 47 46 46 46 46 46 46 46 46 46 46 46 46 45 45 45 45 44 44 44 44 44 43 43 43 43 43 43 42 42 42 42 42 42 41 41 41 41 41 40 40 40 40 40 40 39 39 39 38 38 38 38 37 37 37 36 36 36 36 36 35 35 35 35 34 34 34 34 33 33 32 32 31 31 30 30 29 28 28 27 27 27 27 27 26 26 26 26 26 25 25 25 24 24 24 24 23 23 23 23 23 23 23 23 22 22 22 22 22 22 22 22 22 22 22 22 21 21 21 21 21 21 21 21 21 21 21 21 20 20 20 20 20 20 20 20 20 20 20 20 20 20 20 21 21 21 21 21 21 21
16 16 16 16 17 17 17 17 17 17 17 17 17 17 17 17 17 17 17 17 18 18 18 18 18 18 18 18 18 18 19 19 19 19 19 19 19 19 20 20 20 20 20 20 20 21 21 21 21 21 21 21 22 22 22 22 22 23 23 23 23 23 24 24 24 25 25 25 25 25 25 25 25 26 26 26 26 26 26 26 26 26 26 26 26 26 26 27 27 27 27 27 27 27 27 27 27 27 27 27 27 27 27 27 27 27 27 27 27 27 28 28 28 29 29 30 30 30 31 31 31 32 32 32 33 33 34 34 35 36 37 37 38 39 40 40 40 40 41 41 41 41 41 42 42 42 43 44 45 45 47 47 48 49 50 50 51 51 52 53 53 54 55 55 55 56 56 57 58 58 59 60 61 61 62 63 63 64 64 65 65 66 66 67 67 68 68 68 69 69 70 70 70 70 70 70 70 69 69 69 68 68 68 68 67 67 66 66 66 66 66 65 65 65 64 64 63 63 62 62 61 60 59 59 58 58 57 56 56 55 54 54 54 54 53 53 53 52 52 51 51 50 50 49 49 49 48 48 48 48 47 47 47 47 46 46 46 46 46 46 46 46 46 46 46 46 45 45 45 44 44 44 44 44 43 43 43 43 43 43 42 42 42 42 42 42 41 41 41 41 41 40 40 40 40 40 40 40 39 39 39 39 38 38 38 38 37 37 37 36 36 36 36 36 36 35 35 35 35 34 34 34 33 33 32 32 31 31 30 30 29 28 27 27 27 27 27 27 26 26 26 26 26 25 25 25 24 24 24 24 23 23 23 23 23 23 23 22 22 22 22 22 22 22 22 22 22 22 22 22 21 21 21 21 21 21 21 21 21 21 21 21 20 20 20 20 20 20 20 20 20 20 20 20 20 20 20 21 21 21 21 21 21 21
16 16 17 17 17 17 17 17 17 17 17 17 17 17 17 17 17 18 18 18 18 18 18 18 18 18 19 19 19 19 19 19 19 19 20 20 20 20 20 20 20 20 21 21 21 21 21 21 21 22 22 22 22 22 23 23 23 23 24 24 24 24 25 25 25 26 26 26 26 26 26 26 26 26 26 27 27 27 27 27 27 27 27 27 27 27 27 27 27 27 27 27 27 27 27 27 27 27 27 27 27 27 27 27 27 27 27 27 27 27 28 28 29 29 30 30 30 30 31 31 31 32 32 32 33 33 34 35 35 36 37 38 38 39 40 41 41 41 41 41 42 42 42 42 43 43 44 45 45 46 47 47 48 49 50 50 51 51 53 53 54 54 55 55 56 56 56 57 58 58 60 60 61 62 63 63 63 64 65 65 66 66 67 67 68 68 69 69 69 69 70 70 70 70 70 70 70 69 69 69 69 68 68 67 67 67 66 66 66 66 65 65 65 64 64 63 63 63 62 61 61 60 59 58 58 57 56 56 56 55 55 54 54 54 53 52 52 52 51 50 50 50 49 48 48 48 47 47 47 47 46 46 46 46 45 45 45 45 45 45 45 45 45 45 45 44 44 44 44 43 43 43 43 42 42 42 42 42 42 42 42 41 41 41 41 41 41 40 40 40 40 40 40 40 39 39 39 39 39 39 39 39 38 38 38 37 37 37 37 36 36 36 36 36 36 35 35 35 35 34 34 34 33 33 32 32 31 31 30 30 28 28 27 27 27 27 27 26 26 26 26 26 25 25 25 25 24 24 24 24 23 23 23 23 23 23 23 22 22 22 22 22 22 22 22 22 22 22 22 22 21 21 21 21 21 21 21 21 21 21 21 21 20 20 20 20 20 20 20 20 20 20 20 20 20 20 20 21 21 21 21 21 21 21
16 17 17 17 17 17 17 17 17 17 17 17 17 17 18 18 18 18 18 18 18 18 18 18 18 18 19 19 19 19 19 19 19 20 20 20 20 20 20 20 20 21 21 21 21 21 21 21 22 22 22 22 22 23 23 23 24 24 24 24 24 25 25 25 26 26 26 26 27 27 27 27 27 27 27 27 27 27 27 27 27 27 27 27 27 27 27 27 27 27 27 27 27 27 27 27 27 27 27 27 27 27 27 27 27 27 27 27 27 28 28 28 29 29 30 30 30 30 31 31 31 32 32 33 33 34 35 35 36 36 37 38 39 39 41 41 41 41 41 42 42 42 43 43 43 44 45 45 45 46 47 48 48 49 50 50 51 51 53 53 54 54 55 55 56 56 57 57 58 59 60 61 61 62 63 63 64 64 65 65 66 66 67 67 68 68 69 69 69 70 70 70 70 70 70 70 69 69 69 69 69 68 68 67 67 67 66 66 66 66 65 65 65 64 64 63 63 62 62 61 60 60 59 58 58 57 56 56 56 55 55 54 54 54 53 52 52 51 51 50 50 49 48 48 47 47 47 47 46 46 46 46 46 45 45 45 45 44 44 44 44 44 44 44 44 44 44 43 43 43 42 42 42 42 42 41 41 41 41 41 41 41 41 41 41 40 40 40 40 40 40 40 39 39 39 39 39 39 39 39 39 39 38 38 38 37 37 37 36 36 36 36 36 36 36 35 35 35 35 35 34 34 33 33 33 32 31 31 30 30 28 28 27 27 27 27 27 26 26 26 26 26 25 25 25 25 24 24 24 23 23 23 23 23 23 23 23 22 22 22 22 22 22 22 22 22 22 22 22 22 21 21 21 21 21 21 21 21 21 21 21 21 20 20 20 20 20 20 20 20 20 20 20 20 20 20 20 21 21 21 21 21 21 21
16 17 17 17 17 17 17 17 17 17 17 17 17 18 18 18 18 18 18 18 18 18 18 18 18 19 19 19 19 19 19 20 20 20 20 20 20 20 21 21 21 21 21 21 21 21 22 22 22 22 22 22 23 23 23 24 24 24 24 25 25 25 26 26 26 26 27 27 27 27 27 27 27 27 27 27 27 27 27 27 27 27 27 27 27 27 27 27 27 27 28 28 28 28 28 28 28 28 28 28 28 28 28 28 28 28 28 28 28 28 28 29 29 29 30 30 30 30 31 31 32 32 32 33 33 34 35 35 36 36 38 38 39 40 41 41 41 41 42 42 42 42 43 43 44 44 45 45 46 46 47 48 48 49 50 50 51 52 53 53 54 54 55 56 56 56 57 57 58 59 60 61 61 62 63 63 64 64 65 65 66 66 67 67 68 68 69 69 69 70 70 70 70 70 70 70 69 69 69 69 69 68 68 67 67 67 66 66 66 66 65 65 65 64 64 63 63 62 61 61 60 60 59 58 57 57 56 56 56 55 55 55 54 54 53 52 52 51 50 50 49 49 48 48 47 47 47 46 46 46 46 46 45 45 45 44 44 44 44 44 44 44 44 43 43 43 43 43 43 42 42 42 41 41 41 41 41 41 41 41 41 41 40 40 40 40 40 40 40 39 39 39 39 39 39 39 39 39 39 39 39 39 38 38 38 37 37 37 36 36 36 36 36 36 36 35 35 35 35 35 34 34 33 33 33 32 31 31 30 30 28 28 27 27 27 27 27 26 26 26 26 26 25 25 25 25 24 24 24 23 23 23 23 23 23 23 23 22 22 22 22 22 22 22 22 22 22 22 22 22 21 21 21 21 21 21 21 21 21 21 21 20 20 20 20 20 20 20 20 20 20 20 20 20 20 20 20 20 21 21 21 21 21 21
17 17 17 17 17 17 17 17 17 17 17 18 18 18 18 18 18 18 18 18 18 18 18 18 18 19 19 19 19 19 20 20 20 20 20 20 20 21 21 21 21 21 21 21 21 21 22 22 22 22 22 23 23 23 24 24 24 24 25 25 25 25 26 26 26 27 27 27 27 27 27 27 27 27 27 27 27 27 27 27 27 27 27 28 28 28 28 28 28 28 28 28 28 28 28 28 28 28 28 28 28 28 28 28 28 28 28 28 28 28 29 29 29 29 30 30 30 31 31 31 32 32 32 33 34 34 35 36 36 37 38 38 39 40 41 41 41 41 42 42 42 43 44 44 44 45 45 46 46 47 48 48 48 49 50 50 51 52 53 53 54 54 55 56 56 57 57 58 58 59 60 61 61 62 63 63 64 64 65 66 66 66 67 68 68 68 69 69 70 70 70 70 70 70 70 70 69 69 69 69 69 68 68 67 67 67 67 66 66 66 65 65 65 64 64 63 63 62 61 61 60 60 58 58 57 56 56 56 56 55 55 55 54 53 52 52 51 51 50 49 49 49 48 47 47 47 47 46 46 46 46 45 45 45 45 44 44 44 44 43 43 43 43 43 43 43 42 42 42 42 41 41 41 41 40 40 40 40 40 40 40 40 40 40 40 40 39 39 39 39 39 39 39 39 39 39 39 39 39 39 39 38 38 38 38 37 37 36 36 36 36 36 36 36 35 35 35 35 35 35 34 34 33 33 33 32 31 31 30 30 28 28 27 27 27 27 27 26 26 26 26 26 25 25 25 24 24 24 24 23 23 23 23 23 23 23 23 22 22 22 22 22 22 22 22 22 22 22 22 21 21 21 21 21 21 21 21 21 21 21 21 20 20 20 20 20 20 20 20 20 20 20 20 20 20 20 20 20 21 21 21 21 21 21
17 17 17 17 17 17 17 17 18 18 18 18 18 18 18 18 18 18 18 18 18 18 19 19 19 19 19 19 20 20 20 20 20 20 21 21 21 21 21 21 21 21 21 22 22 22 22 22 22 22 23 23 23 23 24 24 25 25 26 26 26 26 27 27 27 27 27 28 28 28 28 28 28 28 28 28 28 28 28 28 28 28 28 28 28 28 28 28 28 28 28 28 28 28 28 28 28 28 28 28 28 29 29 29 29 29 29 29 29 29 29 29 30 30 30 30 31 31 31 32 32 32 33 33 34 34 35 36 37 37 38 39 39 40 41 41 41 41 42 43 43 43 44 45 45 46 46 47 47 48 48 49 49 49 50 51 52 52 53 54 54 55 56 56 57 57 58 59 59 60 61 61 62 62 63 64 64 65 66 66 66 67 68 68 68 69 69 70 70 70 70 70 70 70 70 70 69 69 69 69 69 68 68 67 67 67 67 66 66 66 65 65 65 64 63 63 63 62 61 61 60 59 58 57 57 56 56 56 56 55 55 55 54 53 52 51 51 50 49 49 48 48 47 47 47 47 46 46 46 46 45 45 45 45 44 44 44 44 43 43 42 42 42 42 42 42 41 41 41 41 40 40 39 39 39 39 39 39 39 40 40 40 39 39 39 39 38 38 38 38 38 38 38 38 38 38 38 38 38 38 38 38 38 37 37 37 37 36 36 36 36 36 35 35 35 35 35 35 35 35 34 34 33 33 33 32 31 31 30 30 28 28 27 27 27 27 27 26 26 26 26 25 25 25 25 24 24 24 23 23 23 23 23 23 23 23 23 22 22 22 22 22 22 22 22 22 22 22 22 21 21 21 21 21 21 21 21 21 21 21 20 20 20 20 20 20 20 20 20 20 20 20 20 20 20 20 20 20 21 21 21 21 21 21
17 17 17 17 17 17 17 17 18 18 18 18 18 18 18 18 18 18 18 18 18 18 19 19 19 19 19 19 20 20 20 20 20 21 21 21 21 21 21 21 21 21 22 22 22 22 22 22 22 23 23 23 23 24 24 25 25 25 26 26 26 26 27 27 27 27 28 28 28 28 28 28 28 28 28 28 28 28 28 28 28 28 28 28 28 28 28 28 28 28 28 28 28 28 28 28 28 28 29 29 29 29 29 29 29 29 29 29 29 29 29 30 30 30 30 31 31 31 32 32 32 32 33 34 34 35 36 36 37 37 38 39 39 40 41 41 41 42 43 43 43 44 45 45 46 46 47 47 48 48 49 49 49 50 51 51 52 52 54 54 55 55 56 57 57 57 58 59 59 60 61 61 62 63 63 64 64 65 66 66 67 67 68 68 69 69 69 70 70 70 70 70 70 70 70 70 69 69 69 69 69 68 68 67 67 67 67 67 66 66 65 65 65 64 63 63 63 62 61 60 60 59 58 57 57 56 56 56 56 55 55 54 54 53 52 51 50 50 49 48 48 47 47 47 47 47 46 46 46 46 45 45 45 45 44 44 44 44 43 42 42 42 42 42 41 41 41 41 40 40 39 39 38 38 38 38 38 38 39 39 39 39 39 38 38 38 38 38 38 38 38 38 38 38 38 38 38 38 38 38 38 38 37 37 37 37 36 36 36 36 35 35 35 35 35 35 35 35 35 35 34 34 34 33 33 32 31 31 30 30 29 28 27 27 27 27 27 26 26 26 26 25 25 25 24 24 24 24 23 23 23 23 23 23 23 23 23 22 22 22 22 22 22 22 22 22 22 22 22 21 21 21 21 21 21 21 21 21 21 21 20 20 20 20 20 20 20 20 20 20 20 20 20 20 20 20 20 20 21 21 21 21 21 21
17 17 17 17 17 17 17 18 18 18 18 18 18 18 18 18 18 18 18 18 18 19 19 19 19 19 19 19 20 20 20 21 21 21 21 21 21 21 21 21 22 22 22 22 22 22 22 22 23 23 23 23 23 24 24 25 25 25 26 26 26 27 27 27 27 28 28 28 28 28 28 29 29 29 28 28 28 28 28 28 28 28 28 28 28 29 29 29 29 29 29 28 29 29 29 29 29 29 29 29 29 29 29 29 29 29 29 29 29 29 30 30 30 30 31 31 31 31 32 32 32 32 33 34 34 35 36 36 37 37 39 39 40 40 41 41 42 42 43 43 44 44 45 45 46 46 47 48 48 48 49 50 50 50 51 52 52 53 54 54 55 55 56 57 57 58 59 59 59 60 61 62 62 63 64 64 65 65 66 66 67 67 68 68 69 69 70 70 70 70 70 70 70 70 70 70 69 69 69 69 69 68 68 67 67 67 67 67 66 66 65 65 65 64 63 63 62 62 61 60 60 59 58 57 57 56 56 56 55 55 55 54 54 53 52 51 50 49 48 48 48 47 47 47 47 47 46 46 46 46 45 45 45 45 44 44 44 43 43 42 42 42 41 41 41 41 41 40 40 40 39 38 38 37 37 37 37 37 38 38 38 38 38 38 38 38 37 37 37 37 37 37 37 37 37 37 37 37 37 37 37 37 37 37 37 37 36 36 36 36 35 35 35 35 35 35 35 35 35 35 34 34 34 33 33 32 31 31 30 30 29 28 28 27 27 27 27 26 26 26 26 25 25 25 24 24 24 24 23 23 23 23 23 23 23 23 22 22 22 22 22 22 22 22 22 22 22 22 22 21 21 21 21 21 21 21 21 21 21 20 20 20 20 20 20 20 20 20 20 20 20 20 20 20 20 20 20 20 20 21 21 21 21 21
17 17 17 17 17 17 18 18 18 18 18 18 18 18 18 18 18 18 19 19 19 19 19 19 19 19 19 20 20 20 21 21 21 21 21 21 21 21 22 22 22 22 22 22 22 22 22 23 23 23 23 23 24 24 25 25 25 26 26 27 27 27 27 27 28 28 28 28 29 29 29 29 29 29 29 29 29 29 29 28 28 28 28 29 29 29 29 29 29 29 29 29 29 29 29 29 29 29 29 29 29 29 30 30 30 30 30 30 30 30 30 30 30 30 31 31 31 31 32 32 32 33 34 34 34 35 36 37 37 38 39 39 40 40 41 41 42 42 43 44 44 44 45 46 46 47 48 48 49 49 50 50 50 51 52 52 53 53 54 55 55 56 57 57 57 58 59 59 60 60 61 62 62 63 64 64 65 65 66 66 67 67 68 69 69 69 70 70 70 70 70 70 70 70 70 70 69 69 69 69 69 68 68 67 67 67 67 67 67 66 65 65 65 64 63 63 63 62 61 60 60 59 58 57 57 56 56 56 55 55 55 54 53 53 52 51 50 49 48 48 48 47 47 47 47 46 46 46 46 46 45 45 45 45 44 44 44 43 43 42 42 42 41 41 41 41 40 40 40 39 38 37 37 36 36 36 36 37 37 37 38 38 37 37 37 37 37 37 37 37 37 37 37 37 37 37 37 37 37 37 37 37 37 37 37 36 36 36 36 35 35 35 35 35 35 35 35 35 35 34 34 34 34 33 33 33 31 31 30 30 29 28 28 27 27 27 27 27 26 26 26 25 25 25 24 24 24 23 23 23 23 23 23 23 23 23 22 22 22 22 22 22 22 22 22 22 22 22 21 21 21 21 21 21 21 21 21 21 21 20 20 20 20 20 20 20 20 20 20 20 20 20 20 20 20 20 20 20 20 21 21 21 21 21
17 17 17 17 17 17 18 18 18 18 18 18 18 18 19 19 19 19 19 19 19 19 19 19 19 19 19 20 20 20 21 21 21 21 21 21 22 22 22 22 22 22 22 22 22 22 23 23 23 23 24 24 24 24 25 25 26 26 27 27 27 27 28 28 28 29 29 29 29 29 29 29 29 30 30 29 29 29 29 29 29 29 29 29 29 29 29 29 29 29 29 29 29 29 29 29 29 29 29 29 30 30 30 30 30 30 30 30 30 30 30 30 31 31 31 31 32 32 32 32 33 33 34 34 35 35 36 37 37 38 39 40 40 41 41 42 42 43 44 44 45 45 46 47 47 48 49 49 50 50 50 51 51 51 52 53 53 54 55 55 56 56 57 58 58 58 59 60 60 60 61 62 63 63 64 65 65 66 66 67 67 68 69 69 69 69 70 70 70 70 70 70 70 70 69 69 69 69 69 69 68 68 68 67 67 67 67 67 67 66 65 65 65 64 63 63 63 62 61 60 60 59 58 57 57 57 56 56 55 55 54 54 53 53 52 51 50 49 48 48 48 47 47 47 47 47 46 46 46 46 45 45 45 45 44 44 44 43 43 42 42 42 41 41 41 40 40 39 39 38 37 37 36 36 36 36 36 36 36 36 36 36 36 36 36 36 36 36 36 36 36 36 36 36 36 36 36 36 36 37 36 36 36 36 36 36 36 36 35 35 35 35 35 35 35 35 35 35 34 34 34 34 34 33 33 33 31 31 30 30 29 29 28 28 27 27 27 27 26 26 26 25 25 25 24 24 24 23 23 23 23 23 23 23 23 22 22 22 22 22 22 22 22 22 22 22 22 22 21 21 21 21 21 21 21 21 21 21 21 20 20 20 20 20 20 20 20 20 20 20 20 20 20 20 20 20 20 20 20 21 21 21 21 21
17 17 17 17 17 18 18 18 18 18 18 18 18 18 19 19 19 19 19 19 19 19 19 19 19 19 20 20 20 20 21 21 21 21 21 21 22 22 22 22 22 22 22 22 22 23 23 23 23 23 24 24 25 25 25 26 26 26 27 27 27 28 28 29 29 29 29 29 29 29 29 30 30 30 30 30 30 30 30 29 29 29 29 29 29 29 30 30 30 29 29 29 29 29 29 29 29 29 30 30 30 30 30 30 30 30 30 30 30 30 30 30 31 31 31 31 32 32 32 32 33 33 34 34 35 35 36 37 37 38 39 40 40 41 41 42 42 43 44 44 45 45 46 47 48 48 49 50 50 50 51 51 51 52 53 53 54 54 55 55 56 56 57 58 58 59 60 60 60 61 62 62 63 63 64 65 65 66 67 67 67 68 69 69 69 70 70 70 70 70 70 70 70 70 69 69 69 69 69 69 68 68 68 68 67 67 67 67 67 66 66 65 65 64 63 63 63 62 61 61 60 59 58 58 57 57 56 56 55 55 54 54 53 53 52 51 50 49 48 48 48 47 47 47 47 47 46 46 46 46 46 45 45 45 44 44 44 43 43 42 42 42 41 41 40 40 39 39 39 38 37 36 36 36 36 36 36 36 36 36 36 36 36 36 36 36 36 36 36 36 36 36 36 36 36 36 36 36 36 36 36 36 36 36 36 36 36 35 35 35 35 35 35 35 35 35 35 34 34 34 34 34 33 33 33 32 31 31 30 30 29 29 28 28 27 27 27 27 26 26 26 25 25 25 24 24 24 23 23 23 23 23 23 23 23 22 22 22 22 22 22 22 22 22 22 22 22 21 21 21 21 21 21 21 21 21 21 21 21 20 20 20 20 20 20 20 20 20 20 19 20 20 20 20 20 20 20 20 20 20 21 21 21 21
17 17 17 17 17 18 18 18 18 18 18 18 18 18 19 19 19 19 19 19 19 19 19 19 19 19 20 20 20 20 21 21 21 21 21 22 22 22 22 22 22 22 22 22 23 23 23 23 23 24 24 25 25 25 26 26 26 27 27 27 28 28 29 29 29 29 30 30 30 30 30 30 30 30 30 30 30 30 30 30 30 30 29 30 30 30 30 30 30 30 29 29 29 29 30 30 30 30 30 30 30 30 30 30 30 30 30 30 30 30 30 31 31 31 31 32 32 32 32 33 33 33 34 35 35 36 37 37 38 38 39 40 40 41 41 42 42 43 44 45 45 46 47 47 48 49 50 50 50 50 51 51 52 52 53 54 54 54 55 56 56 56 58 58 59 59 60 60 61 61 62 63 63 64 65 65 65 66 67 67 68 68 69 69 69 70 70 70 70 70 70 70 70 70 69 69 69 69 69 68 68 68 68 67 67 67 67 67 67 66 66 65 65 64 64 63 63 62 61 61 60 60 58 58 57 57 56 56 55 55 54 54 53 53 52 51 50 50 48 48 48 48 47 47 47 47 47 46 46 46 46 45 45 45 44 44 44 43 43 42 42 42 41 41 40 40 39 39 38 38 37 36 36 36 36 36 36 36 36 36 36 36 36 36 36 36 36 36 36 36 36 36 36 36 36 36 36 36 36 36 36 36 36 36 36 36 35 35 35 35 35 35 35 35 35 35 34 34 34 34 34 33 33 33 33 32 31 31 30 30 29 29 28 28 27 27 27 27 26 26 26 25 25 25 24 24 24 23 23 23 23 23 23 23 23 22 22 22 22 22 22 22 22 22 22 22 22 21 21 21 21 21 21 21 21 21 21 21 21 20 20 20 20 20 20 20 20 20 20 19 19 20 20 20 20 20 20 20 20 20 21 21 21 21
17 17 17 17 18 18 18 18 18 18 18 18 18 19 19 19 19 19 19 19 19 19 19 19 20 20 20 20 20 20 21 21 21 21 22 22 22 22 22 22 22 22 23 23 23 23 23 23 24 24 25 25 25 25 26 26 26 27 27 28 28 28 29 29 30 30 30 30 30 30 30 31 31 31 31 31 31 30 30 30 30 30 30 30 30 31 31 31 31 30 30 30 30 30 30 30 30 30 30 30 30 30 31 31 31 31 31 31 30 30 31 31 31 31 31 32 32 32 32 33 33 33 34 35 35 36 37 37 38 38 39 40 40 40 41 42 43 43 44 45 45 46 47 48 48 49 50 50 50 51 51 52 52 53 53 54 54 55 56 56 56 57 58 58 59 59 60 61 61 61 62 63 63 64 65 65 66 66 67 67 68 68 69 69 70 70 70 70 70 70 70 70 70 70 69 69 69 69 69 68 68 68 68 67 67 67 67 67 67 66 65 65 65 64 63 63 63 62 61 61 60 60 59 58 58 57 56 56 55 55 54 54 53 53 52 51 51 50 49 48 48 48 48 47 47 47 47 46 46 46 46 45 45 45 44 44 44 43 43 42 42 42 41 41 40 40 39 39 38 38 37 36 36 36 36 36 36 36 36 36 36 36 36 36 36 36 36 36 36 36 36 36 36 36 36 36 36 36 36 36 36 36 36 36 36 35 35 35 35 35 35 35 35 35 34 34 34 34 34 34 33 33 33 33 33 32 31 31 30 30 29 29 28 28 27 27 27 27 26 26 26 25 25 25 24 24 24 23 23 23 23 23 23 23 22 22 22 22 22 22 22 22 22 22 22 22 22 21 21 21 21 21 21 21 21 21 21 21 21 20 20 20 20 20 20 20 20 20 20 19 19 20 20 20 20 20 20 20 20 20 21 21 21 21
17 17 17 18 18 18 18 18 18 18 18 18 19 19 19 19 19 19 19 20 20 20 20 20 20 20 20 20 21 21 21 21 21 21 22 22 22 22 22 22 22 23 23 23 23 23 24 24 24 24 25 25 26 26 26 27 27 27 28 29 29 29 30 30 31 31 31 31 31 31 31 31 32 32 31 31 31 31 31 31 31 31 32 32 32 32 32 32 31 31 31 31 31 31 31 31 31 31 31 31 31 31 31 31 31 31 31 31 31 31 31 31 31 31 32 32 32 32 32 33 33 33 34 35 35 36 37 37 38 38 39 39 40 40 41 42 43 43 45 45 46 46 48 48 49 50 50 50 51 51 52 52 53 53 54 55 55 55 56 57 57 57 59 59 59 60 61 61 62 62 63 63 64 64 65 66 66 66 67 68 68 68 69 69 70 70 70 70 70 70 70 70 70 69 69 69 69 69 68 68 68 68 67 67 67 67 67 67 66 66 65 65 65 64 63 63 63 62 61 61 60 60 59 59 58 58 57 56 56 55 54 54 54 53 52 52 51 51 50 49 49 49 48 48 48 47 47 47 46 46 46 46 45 45 44 44 44 43 42 42 42 41 41 40 40 40 39 38 38 37 37 36 36 36 36 36 36 36 36 36 36 35 35 35 35 35 35 35 35 35 35 35 35 35 35 35 35 35 35 35 35 35 35 35 35 35 35 35 35 35 35 34 34 34 34 34 34 34 33 33 33 33 32 32 32 31 31 30 30 29 29 29 28 28 27 27 27 27 26 26 26 25 25 25 24 24 23 23 23 23 23 23 23 23 22 22 22 22 22 22 22 22 22 22 22 22 21 21 21 21 21 21 21 21 21 21 21 21 20 20 20 20 20 20 20 20 20 20 20 19 19 19 20 20 20 20 20 20 20 20 20 21 21 21
17 17 18 18 18 18 18 18 18 18 18 18 19 19 19 19 19 19 20 20 20 20 20 20 20 20 21 21 21 21 21 21 21 21 22 22 22 22 22 22 22 23 23 23 23 23 24 24 24 25 25 26 26 26 27 27 27 27 29 29 30 30 31 31 31 31 32 32 32 32 32 32 32 32 32 32 32 32 32 32 32 32 32 32 32 32 32 32 32 32 32 32 32 32 32 32 32 31 31 31 31 31 31 31 31 31 31 31 31 31 31 31 31 31 32 32 32 32 32 33 33 33 34 35 35 36 37 37 38 38 39 39 40 40 42 42 43 43 45 45 46 47 48 49 49 50 50 51 51 51 52 53 53 53 54 55 55 56 57 57 57 58 59 59 60 60 61 62 62 62 63 64 64 64 65 66 66 67 67 68 68 68 69 69 70 70 70 70 70 70 70 70 70 69 69 69 69 69 68 68 68 67 67 67 67 67 67 66 66 66 65 65 65 64 63 63 63 62 61 61 61 60 59 59 58 58 57 56 56 55 55 54 54 53 52 52 52 51 50 50 49 49 48 48 48 47 47 47 47 46 46 46 45 45 44 44 44 43 42 42 42 41 41 40 40 39 39 38 38 37 37 36 36 36 36 36 36 36 36 35 35 35 35 35 35 35 35 35 35 35 35 35 35 35 35 35 35 35 35 35 35 35 35 35 35 35 35 35 35 35 34 34 34 34 34 34 33 33 33 33 32 32 32 32 31 31 30 30 30 29 29 28 28 28 27 27 27 27 26 26 26 25 25 24 24 24 23 23 23 23 23 23 23 23 22 22 22 22 22 22 22 22 22 22 22 22 21 21 21 21 21 21 21 21 21 21 21 21 20 20 20 20 20 20 20 20 20 20 19 19 19 19 20 20 20 20 20 20 20 20 20 21 21 21
17 18 18 18 18 18 18 18 18 18 18 18 19 19 19 19 19 20 20 20 20 20 20 20 20 21 21 21 21 21 21 21 21 22 22 22 22 22 22 22 22 23 23 23 23 24 24 24 25 25 25 26 26 26 27 27 27 28 29 30 30 30 31 31 32 32 33 33 33 33 32 33 33 33 32 32 32 32 32 33 33 33 33 33 33 33 33 33 33 33 32 32 32 32 32 32 32 32 32 32 32 32 32 31 31 31 31 31 31 31 31 31 31 31 32 32 32 32 32 33 33 33 34 35 35 36 37 38 38 38 39 39 40 40 42 42 43 44 45 45 46 47 48 49 50 50 50 51 51 51 52 53 53 54 55 55 56 56 57 57 58 58 59 60 60 61 61 62 62 63 64 64 64 65 65 66 66 67 67 68 68 68 69 69 70 70 70 70 70 70 70 70 70 69 69 69 69 68 68 68 67 67 67 67 66 66 66 66 66 66 65 65 65 64 63 63 63 62 61 61 61 60 59 59 58 58 57 57 56 56 55 54 54 54 53 52 52 51 50 50 50 49 49 48 48 48 47 47 47 46 46 46 45 45 44 44 44 43 42 42 41 41 40 40 40 39 39 38 38 37 36 36 36 36 36 36 36 36 35 35 35 35 35 35 35 35 35 35 35 35 35 35 35 35 35 35 35 35 35 35 35 35 35 35 35 35 35 35 35 35 34 34 34 34 34 33 33 33 33 32 32 32 31 31 31 31 30 30 29 29 29 28 28 28 27 27 27 27 26 26 26 25 25 24 24 24 23 23 23 23 23 23 23 22 22 22 22 22 22 22 22 22 22 22 22 22 21 21 21 21 21 21 21 21 21 21 21 21 20 20 20 20 20 20 20 20 20 20 19 19 19 19 19 20 20 20 20 20 20 20 20 21 21 21
17 18 18 18 18 18 18 18 18 18 18 19 19 19 19 19 20 20 20 20 20 20 20 21 21 21 21 21 21 21 21 21 22 22 22 22 22 22 22 22 23 23 23 23 23 24 24 25 25 25 26 26 26 27 27 27 28 28 29 30 30 31 31 32 32 33 33 33 33 33 33 33 33 33 33 33 33 33 33 33 33 33 33 33 33 33 33 33 33 33 33 33 33 33 33 33 32 32 32 32 32 32 32 32 32 32 31 31 31 31 31 31 32 32 32 32 32 32 32 33 33 33 34 35 35 36 37 38 38 39 39 40 40 41 42 43 43 44 45 46 46 47 48 49 50 50 51 51 51 52 53 53 54 54 55 55 56 56 57 58 58 59 60 60 60 61 62 62 63 63 64 64 65 65 66 66 66 67 68 68 68 68 69 69 70 70 70 70 70 70 70 70 70 69 69 69 69 68 68 68 67 67 66 66 66 66 66 66 66 66 65 65 65 64 63 63 63 62 62 61 61 60 60 59 59 58 57 57 56 56 55 55 54 54 53 52 52 52 51 50 50 50 49 48 48 48 47 47 47 46 46 46 45 45 44 44 43 43 42 42 41 41 40 40 40 39 38 38 38 37 36 36 36 36 36 36 36 36 35 35 35 35 35 35 35 35 35 35 35 35 35 35 35 35 35 35 35 35 35 35 35 35 35 35 35 35 35 35 34 34 34 34 34 34 33 33 33 33 32 32 32 32 31 31 31 30 30 29 29 29 28 28 28 28 27 27 27 27 26 26 26 25 25 24 24 24 23 23 23 23 23 23 23 22 22 22 22 22 22 22 22 22 22 22 22 22 21 21 21 21 21 21 21 21 21 21 21 21 20 20 20 20 20 20 20 20 20 20 19 19 19 19 19 20 20 20 20 20 20 20 20 20 21 21
18 18 18 18 18 18 18 18 18 18 18 19 19 19 19 20 20 20 20 20 20 21 21 21 21 21 21 21 21 21 21 22 22 22 22 22 22 22 22 23 23 23 23 23 24 24 25 25 25 26 26 26 27 27 28 28 29 29 30 31 31 31 32 33 33 34 34 34 35 35 35 34 34 34 34 34 34 34 34 34 34 35 35 35 35 35 35 34 34 34 34 34 34 34 34 34 34 33 33 33 32 32 32 32 32 32 32 32 32 32 32 32 32 32 32 32 32 32 33 33 33 33 34 35 36 36 38 38 39 39 40 40 41 41 42 43 44 44 45 46 46 47 48 49 49 50 51 51 52 52 53 54 54 55 56 56 56 57 58 58 59 59 60 61 61 61 62 63 63 63 64 65 65 65 66 66 67 67 68 68 68 69 69 69 70 70 70 70 70 70 70 70 69 69 69 69 68 68 68 67 67 67 66 66 66 66 66 66 66 66 65 65 65 64 63 63 63 62 62 61 61 61 60 59 59 59 58 57 57 56 55 55 55 54 53 53 53 52 51 51 50 50 49 49 48 48 47 47 47 46 46 46 45 45 44 44 43 43 42 41 41 41 40 40 39 39 38 38 37 37 36 36 36 36 36 36 36 36 35 35 35 35 35 35 35 35 35 35 35 35 35 35 35 35 35 35 35 35 35 35 35 35 34 34 34 34 34 34 34 34 34 34 34 33 33 33 32 32 32 31 31 31 30 30 30 29 29 29 28 28 28 28 28 28 27 27 27 26 26 26 25 25 25 24 24 24 23 23 23 23 23 23 22 22 22 22 22 22 22 22 22 22 22 22 21 21 21 21 21 21 21 21 21 21 21 21 21 21 20 20 20 20 20 20 20 20 20 20 19 19 19 19 19 20 20 20 20 20 20 20 20 20 21 21
18 18 18 18 18 18 18 18 18 18 18 19 19 19 20 20 20 20 20 20 20 21 21 21 21 21 21 21 21 21 22 22 22 22 22 22 22 22 23 23 23 23 23 23 24 24 25 25 26 26 26 27 27 27 28 29 29 30 30 31 31 32 33 33 34 34 35 35 35 35 35 35 35 35 35 35 35 35 35 35 35 35 35 35 35 35 35 35 35 35 35 35 35 34 34 34 34 34 33 33 33 33 33 32 32 32 32 32 32 32 32 32 32 32 32 32 32 32 33 33 33 34 35 35 36 37 38 38 39 39 40 41 41 42 43 43 44 44 45 46 46 47 48 49 49 50 51 51 52 52 53 54 54 55 56 56 57 57 58 59 59 59 60 61 61 62 62 63 63 64 64 65 65 65 66 66 67 67 68 68 68 69 69 69 70 70 70 70 70 70 70 70 69 69 69 69 68 68 68 67 67 67 66 66 66 66 66 66 66 66 65 65 65 64 63 63 63 62 62 62 61 61 60 60 59 59 58 57 57 56 55 55 55 54 54 53 53 52 52 51 51 50 49 49 48 48 47 47 47 46 46 46 45 45 44 44 43 42 41 41 41 40 40 40 39 39 38 38 37 37 36 36 36 36 36 36 36 36 35 35 35 35 35 35 35 35 35 35 35 35 35 35 35 35 35 35 35 35 35 35 35 34 34 34 34 34 34 34 34 34 34 34 33 33 33 33 32 32 31 31 31 30 30 30 29 29 29 28 28 28 28 28 28 28 27 27 27 26 26 26 25 25 24 24 24 24 23 23 23 23 23 23 22 22 22 22 22 22 22 22 22 22 22 22 21 21 21 21 21 21 21 21 21 21 21 21 21 21 20 20 20 20 20 20 20 20 20 20 19 19 19 19 19 19 20 20 20 20 20 20 20 20 20 21
18 18 18 18 18 18 18 18 18 18 18 19 19 19 20 20 20 20 20 20 21 21 21 21 21 21 21 21 21 22 22 22 22 22 22 22 22 22 23 23 23 23 23 24 24 24 25 25 26 26 27 27 27 28 29 29 30 30 31 31 32 32 33 34 34 34 35 36 36 36 36 36 36 36 36 35 35 36 36 36 36 36 36 36 36 36 36 36 35 35 35 35 35 35 35 35 35 34 34 34 33 33 33 33 33 32 32 32 32 32 32 32 32 32 32 32 32 33 33 33 33 34 35 36 36 37 38 39 39 40 41 41 42 42 43 43 44 44 46 46 47 47 48 49 49 50 51 52 52 53 54 54 55 55 56 57 57 57 58 59 59 60 61 61 62 62 63 63 64 64 65 65 65 66 66 67 67 67 68 68 68 69 69 70 70 70 70 70 70 70 70 69 69 69 69 68 68 68 68 67 67 67 66 66 66 66 66 66 66 66 65 65 64 64 63 63 63 62 62 62 62 61 60 60 59 59 58 57 57 57 56 55 55 55 54 53 53 53 52 51 51 51 49 49 48 48 47 47 47 46 46 46 45 45 44 43 43 42 41 41 40 40 40 39 39 39 38 38 37 37 36 36 36 36 36 36 36 36 35 35 35 35 35 35 35 35 35 35 35 35 35 35 35 35 35 35 35 35 35 34 34 34 34 34 34 34 34 34 34 34 34 34 33 33 33 32 32 32 31 31 30 30 30 29 29 29 28 28 28 28 27 27 27 27 27 27 26 26 26 25 25 25 24 24 24 24 23 23 23 23 23 23 22 22 22 22 22 22 22 22 22 22 22 21 21 21 21 21 21 21 21 21 21 21 21 21 21 21 20 20 20 20 20 20 20 20 20 20 19 19 19 19 19 19 20 20 20 20 20 20 20 20 20 20
18 18 18 18 18 18 18 18 18 18 18 19 19 19 20 20 20 20 20 20 21 21 21 21 21 21 21 21 22 22 22 22 22 22 22 22 22 23 23 23 23 23 23 24 24 24 25 26 26 26 27 27 27 28 29 29 30 30 31 31 32 32 33 34 34 35 36 36 37 37 37 36 36 36 36 36 36 36 36 36 36 36 36 36 36 36 36 36 36 36 36 36 36 36 35 35 35 35 34 34 34 34 34 33 33 33 32 32 32 32 32 32 32 32 32 33 33 33 33 34 34 34 36 36 37 37 39 39 40 40 41 42 42 42 43 44 44 45 46 46 47 47 48 49 50 50 51 52 52 53 54 54 55 55 56 57 57 58 59 59 60 60 61 61 62 62 63 63 64 64 65 65 65 66 66 67 67 67 68 68 68 69 69 70 70 70 70 70 70 70 70 69 69 69 69 68 68 68 68 67 67 67 66 66 66 66 66 66 66 65 65 65 64 64 63 63 63 62 62 62 62 62 61 60 60 59 58 58 57 57 56 55 55 55 54 54 53 53 52 52 51 51 50 49 49 48 47 47 47 46 46 45 45 45 44 43 43 42 41 41 40 40 40 39 39 39 38 38 37 37 36 36 36 36 36 36 36 36 35 35 35 35 35 35 35 35 35 35 35 35 35 35 35 35 35 35 35 35 34 34 34 34 34 34 34 34 34 34 34 34 34 33 33 33 32 32 32 31 31 30 30 30 29 29 29 28 28 28 27 27 27 27 27 27 27 27 26 26 26 25 25 25 24 24 24 23 23 23 23 23 23 23 22 22 22 22 22 22 22 22 22 22 21 21 21 21 21 21 21 21 21 21 21 21 21 21 21 21 20 20 20 20 20 20 20 20 20 20 19 19 19 19 19 19 20 20 20 20 20 20 20 20 20 20
18 18 18 18 18 18 18 18 18 18 18 19 19 19 20 20 20 20 20 21 21 21 21 21 21 21 22 22 22 22 22 22 22 22 22 23 23 23 23 23 23 23 23 24 24 25 26 26 26 27 27 28 28 29 30 30 30 31 32 32 32 33 34 34 35 35 36 37 37 37 37 37 37 37 37 37 37 37 37 37 37 37 37 37 37 37 37 37 37 37 37 37 37 37 36 36 36 36 35 35 35 35 34 34 34 34 34 33 33 33 33 33 33 33 33 34 34 34 34 35 35 35 36 37 37 38 39 40 40 41 42 42 42 43 43 44 44 45 46 46 47 48 49 49 50 51 52 52 53 53 54 55 55 56 57 57 58 58 59 60 60 60 61 62 62 63 63 64 64 65 65 66 66 66 67 67 67 68 68 68 69 69 69 70 70 70 70 70 70 70 69 69 69 69 68 68 68 68 67 67 67 67 66 66 66 66 66 66 66 65 65 65 64 64 63 63 63 62 62 62 62 62 61 60 60 59 58 58 57 57 56 56 56 55 55 54 54 53 52 52 52 51 50 49 49 48 47 47 47 46 46 45 45 45 44 43 43 42 41 41 40 40 40 39 39 39 38 38 37 37 36 36 36 36 36 36 36 35 35 35 35 35 35 35 35 35 35 35 35 35 35 35 35 35 35 35 34 34 34 34 34 34 34 34 34 34 34 34 34 34 33 33 33 33 32 32 31 31 30 30 29 29 29 28 28 28 27 27 27 27 27 27 27 27 26 26 26 26 25 25 25 25 24 24 23 23 23 23 23 23 23 22 22 22 22 22 22 22 22 22 22 22 21 21 21 21 21 21 21 21 21 21 21 21 21 21 21 20 20 20 20 20 20 20 20 20 20 20 19 19 19 19 19 19 19 20 20 20 20 20 20 20 20 20
18 18 18 18 18 18 18 18 18 18 18 19 19 19 20 20 20 20 20 21 21 21 21 21 21 21 22 22 22 22 22 22 22 22 23 23 23 23 23 23 23 23 23 24 24 25 26 26 27 27 28 28 29 29 30 30 31 31 32 32 33 33 34 35 35 36 37 37 38 38 38 38 38 38 38 38 38 38 38 38 38 38 38 38 38 38 38 38 37 37 37 37 37 37 37 37 36 36 36 36 36 35 35 35 35 34 34 34 34 34 34 34 34 34 34 34 34 34 35 35 35 36 36 37 38 38 39 40 41 41 42 42 42 43 44 44 44 45 46 47 47 48 49 50 50 51 52 52 53 54 55 55 56 56 57 58 58 58 59 60 60 61 62 62 62 63 64 64 64 65 65 66 66 66 67 67 67 68 68 68 69 69 69 69 70 70 70 70 70 70 69 69 69 69 68 68 68 68 67 67 67 67 66 66 66 66 66 66 65 65 65 65 64 64 63 63 63 62 62 62 62 62 61 60 60 59 59 58 58 57 56 56 56 56 55 54 54 53 53 52 52 51 50 49 49 48 47 47 47 46 46 45 45 45 44 43 43 42 41 41 41 40 40 39 39 39 38 38 37 37 36 36 36 36 36 36 36 35 35 35 35 35 35 35 35 35 35 35 35 35 35 35 35 34 34 34 34 34 34 34 34 34 34 34 34 34 34 34 34 34 33 33 33 33 32 32 31 31 30 30 29 29 28 28 28 28 27 27 27 27 27 27 27 26 26 26 26 26 25 25 25 24 24 24 23 23 23 23 23 23 22 22 22 22 22 22 22 22 22 22 22 22 21 21 21 21 21 21 21 21 21 21 21 21 21 20 20 20 20 20 20 20 20 20 20 20 20 20 19 19 19 19 19 19 19 20 20 20 20 20 20 20 20 20
18 18 18 18 18 18 18 18 18 18 18 19 19 19 20 20 20 20 20 21 21 21 21 21 21 22 22 22 22 22 22 22 22 22 23 23 23 23 23 23 23 23 24 24 24 25 26 26 27 27 28 28 29 30 30 30 31 31 32 33 33 33 34 35 35 36 37 37 38 38 38 38 38 38 38 38 38 38 38 38 38 38 38 38 38 38 38 38 38 38 38 38 38 38 37 37 37 37 36 36 36 36 35 35 35 35 34 34 34 34 34 34 34 34 34 35 35 35 35 35 35 36 37 37 38 39 40 40 41 41 42 42 43 43 44 44 45 45 46 47 47 48 49 50 50 51 52 53 53 54 55 55 56 56 57 58 58 59 60 60 60 61 62 62 63 63 64 64 65 65 66 66 66 66 67 67 67 68 68 68 69 69 69 69 69 69 69 69 69 69 69 69 69 69 68 68 68 68 67 67 67 67 66 66 66 66 66 66 65 65 65 65 64 64 63 63 63 62 62 62 62 62 61 60 60 60 59 58 58 57 57 56 56 56 55 55 54 54 53 52 52 51 50 50 49 48 47 47 47 46 46 45 45 45 44 43 43 42 41 41 41 40 40 39 39 39 38 38 37 37 36 36 36 36 36 36 36 35 35 35 35 35 35 35 35 35 35 35 35 35 35 35 35 34 34 34 34 34 34 34 34 34 34 34 34 34 34 34 34 34 33 33 33 32 32 32 31 31 30 30 29 29 28 28 28 28 27 27 27 27 27 26 26 26 26 26 26 26 25 25 25 24 24 24 23 23 23 23 23 23 22 22 22 22 22 22 22 22 22 22 22 21 21 21 21 21 21 21 21 21 21 21 21 21 20 20 20 20 20 20 20 20 20 20 20 20 20 19 19 19 19 19 19 19 19 20 20 20 20 20 20 20 20 20
18 18 18 18 18 18 18 18 18 18 18 19 19 19 20 20 20 20 20 21 21 21 21 21 22 22 22 22 22 22 22 22 22 23 23 23 23 23 23 23 23 23 24 24 25 25 26 26 27 27 28 29 29 30 30 31 31 31 32 33 33 34 35 35 36 36 37 38 38 38 38 38 38 38 39 39 39 39 39 39 39 39 39 39 39 39 39 39 39 39 38 38 38 38 38 38 37 37 37 37 36 36 36 36 35 35 35 35 35 35 35 35 35 35 35 35 35 35 35 36 36 36 37 38 38 39 40 41 41 42 42 42 43 43 44 44 45 45 46 47 47 48 49 50 51 51 52 53 53 54 55 56 56 57 57 58 58 59 60 60 61 61 62 62 63 63 64 64 65 65 66 66 66 67 67 67 68 68 68 69 69 69 69 69 69 69 69 69 69 69 69 69 69 69 68 68 68 68 67 67 67 67 66 66 66 66 66 65 65 65 65 65 64 64 63 63 63 63 62 62 62 62 61 60 60 60 59 58 58 57 57 56 56 56 55 55 54 54 53 52 52 51 50 50 49 49 47 47 47 47 46 46 45 45 44 43 43 42 41 41 41 40 40 40 39 39 38 38 37 37 37 36 36 36 36 36 36 35 35 35 35 35 35 35 35 35 35 35 35 35 35 35 35 34 34 34 34 34 34 34 34 34 34 34 34 34 34 34 34 33 33 33 33 32 32 32 31 31 30 30 29 29 28 28 28 28 27 27 27 27 26 26 26 26 26 26 26 26 25 25 24 24 24 23 23 23 23 23 23 23 22 22 22 22 22 22 22 22 22 22 22 21 21 21 21 21 21 21 21 21 21 21 21 21 20 20 20 20 20 20 20 20 20 20 20 20 20 19 19 19 19 19 19 19 19 20 20 20 20 20 20 20 20 20
18 18 18 18 18 18 18 18 18 18 18 19 19 19 20 20 20 20 20 21 21 21 21 21 21 22 22 22 22 22 22 22 23 23 23 23 23 23 23 23 24 24 24 25 25 25 26 26 27 27 28 29 29 30 30 31 31 32 33 33 34 34 35 36 36 37 38 38 38 39 39 39 39 39 39 39 40 40 40 40 40 40 40 40 40 40 40 40 40 40 39 39 39 39 39 39 38 38 38 37 37 37 37 36 36 36 36 35 35 35 35 35 35 36 36 36 36 36 36 36 36 36 37 38 39 39 41 41 42 42 42 43 43 43 43 44 45 45 47 47 48 48 50 50 51 52 53 53 54 54 55 56 56 57 58 58 59 59 60 61 61 62 62 63 63 64 64 65 65 65 66 66 67 67 67 68 68 68 68 69 69 69 69 69 69 69 69 69 69 69 69 69 69 68 68 68 68 68 67 67 67 67 66 66 66 66 65 65 65 65 65 64 64 64 63 63 63 63 62 62 62 61 61 60 60 60 59 58 58 58 57 57 56 56 55 55 55 54 53 53 52 52 51 50 50 49 48 47 47 47 46 46 45 45 44 43 43 43 42 41 41 41 40 40 39 39 38 38 38 37 37 37 36 36 36 36 36 36 35 35 35 35 35 35 35 35 35 35 35 35 35 35 35 34 34 34 34 34 34 33 33 33 33 33 33 33 33 33 33 33 32 32 32 32 32 31 31 31 30 30 29 29 29 28 28 28 27 27 27 27 26 26 26 26 26 26 26 26 25 25 24 24 24 23 23 23 23 23 23 23 22 22 22 22 22 22 22 22 22 22 21 21 21 21 21 21 21 21 21 21 21 21 21 20 20 20 20 20 20 20 20 20 20 20 20 20 19 19 19 19 19 19 19 19 19 19 20 20 20 20 20 20 20 20
18 18 18 18 18 18 18 18 18 18 18 19 19 19 20 20 20 20 20 21 21 21 21 21 21 22 22 22 22 22 22 23 23 23 23 23 23 23 24 24 24 24 24 25 25 25 26 27 27 27 28 28 29 30 30 31 31 32 33 33 34 34 35 36 36 37 38 38 39 39 39 39 39 39 40 40 40 40 40 40 40 40 40 40 40 40 40 40 40 40 40 40 40 40 39 39 39 39 38 38 38 37 37 37 36 36 36 36 36 36 36 36 36 36 36 36 36 36 37 37 37 37 38 38 39 39 41 41 42 42 42 43 43 43 43 44 45 46 47 47 48 49 50 51 51 52 53 53 54 55 56 56 57 57 58 58 59 59 60 61 61 62 63 63 63 64 65 65 65 66 66 67 67 67 67 68 68 68 68 69 69 69 69 69 69 69 69 69 69 69 69 69 68 68 68 68 68 67 67 67 67 67 66 66 66 66 65 65 65 65 64 64 64 64 63 63 63 63 62 62 62 61 61 60 60 60 59 58 58 58 57 57 56 56 56 55 55 54 53 53 52 52 51 50 50 49 48 48 47 47 46 46 45 45 44 44 43 43 42 41 41 41 40 40 39 39 39 38 38 38 37 37 37 36 36 36 36 36 35 35 35 35 35 35 35 35 35 35 35 35 35 35 35 34 34 34 34 34 33 33 33 33 33 33 33 33 33 33 33 32 32 32 32 32 31 31 31 31 30 30 30 30 29 29 28 28 27 27 27 27 27 26 26 26 26 26 26 25 25 25 24 24 24 23 23 23 23 23 23 23 22 22 22 22 22 22 22 22 22 21 21 21 21 21 21 21 21 21 21 21 21 21 20 20 20 20 20 20 20 20 20 20 20 20 20 20 19 19 19 19 19 19 19 19 19 19 20 20 20 20 20 20 20 20
18 18 18 18 18 18 18 18 18 18 18 18 19 19 20 20 20 20 20 20 21 21 21 21 21 22 22 22 22 22 23 23 23 23 23 23 23 23 24 24 24 24 25 25 25 26 26 27 27 27 28 29 29 30 31 31 31 32 33 34 34 35 36 36 37 37 38 39 39 39 39 39 40 40 40 40 40 41 41 41 41 41 41 41 41 41 41 41 41 41 41 40 40 40 40 40 39 39 38 38 38 38 37 37 37 37 36 36 36 36 36 36 36 36 36 36 37 37 37 37 37 37 38 39 39 40 41 41 42 42 42 43 43 43 43 44 45 46 47 48 48 49 50 51 51 52 53 54 54 55 56 56 57 57 58 59 59 60 60 61 61 62 63 63 64 64 65 65 65 66 66 67 67 67 67 68 68 68 69 69 69 69 69 69 69 69 69 69 69 69 69 69 68 68 68 68 68 67 67 67 67 67 66 66 66 66 65 65 65 65 64 64 64 64 63 63 63 63 62 62 62 61 61 60 60 60 59 59 58 58 57 57 57 56 56 55 55 54 53 53 53 52 51 50 50 49 48 48 48 47 46 46 45 45 44 44 43 43 42 42 41 41 40 40 39 39 39 38 38 38 37 37 37 37 36 36 36 36 35 35 35 35 35 35 35 35 35 35 35 35 35 35 35 34 34 34 34 34 33 33 33 33 33 33 33 33 32 32 32 32 32 31 31 31 31 31 31 31 30 30 30 30 29 29 28 28 27 27 27 27 27 27 26 26 26 26 26 25 25 25 24 24 23 23 23 23 23 23 23 23 22 22 22 22 22 22 22 22 22 21 21 21 21 21 21 21 21 21 21 21 21 20 20 20 20 20 20 20 20 20 20 20 20 20 20 20 19 19 19 19 19 19 19 19 19 19 20 20 20 20 20 20 20 20
18 18 18 18 18 18 18 18 18 18 18 18 19 19 20 20 20 20 20 20 21 21 21 21 21 22 22 22 22 23 23 23 23 23 23 23 23 24 24 24 24 25 25 25 25 26 26 27 27 27 28 29 29 30 31 31 32 32 33 34 34 35 36 36 37 37 38 39 39 39 39 40 40 40 41 41 41 41 41 41 41 41 41 41 41 41 41 41 41 41 41 41 41 41 40 40 40 39 39 39 38 38 38 37 37 37 36 36 36 36 36 36 36 36 36 37 37 37 37 37 38 38 38 39 39 40 41 41 42 42 42 43 43 43 44 44 45 46 47 48 49 49 50 51 52 52 53 54 55 55 56 57 57 57 58 59 59 60 61 61 61 62 63 63 64 64 65 65 66 66 67 67 67 67 68 68 68 68 69 69 69 69 69 69 69 69 69 69 69 69 69 68 68 68 68 68 67 67 67 67 67 66 66 66 66 65 65 65 65 65 64 64 64 64 63 63 63 62 62 62 61 61 61 60 60 60 59 59 58 58 57 57 57 56 56 55 55 54 54 53 53 52 51 51 50 50 49 48 48 47 46 46 45 45 44 44 43 43 42 42 41 41 40 40 39 39 39 39 38 38 38 37 37 37 36 36 36 36 36 35 35 35 35 35 35 35 35 35 35 35 35 35 34 34 34 34 34 34 33 33 33 33 33 33 33 32 32 32 32 31 31 31 31 31 31 31 31 31 30 30 30 30 29 29 28 28 27 27 27 27 27 27 27 26 26 26 26 25 25 25 24 24 24 23 23 23 23 23 23 23 22 22 22 22 22 22 22 22 21 21 21 21 21 21 21 21 21 21 21 21 20 20 20 20 20 20 20 20 20 20 20 20 20 20 20 19 19 19 19 19 19 19 19 19 19 19 19 20 20 20 20 20 20 20
18 18 18 18 18 18 18 18 18 18 18 18 18 19 19 20 20 20 20 20 21 21 21 21 21 22 22 22 22 23 23 23 23 23 23 24 24 24 24 25 25 25 25 26 26 26 27 27 27 28 29 29 30 30 31 32 32 33 34 34 35 35 36 37 37 38 39 39 39 39 40 40 40 41 41 42 42 42 42 42 42 42 42 42 42 42 42 42 42 42 42 42 42 41 41 41 40 40 40 39 39 39 38 38 37 37 37 36 36 36 36 36 36 36 37 37 37 37 38 38 38 38 39 39 40 40 41 41 42 42 42 43 43 43 44 45 46 46 48 48 49 50 51 51 52 53 54 54 55 56 56 57 57 58 59 59 60 60 61 61 62 62 63 64 64 64 65 66 66 66 67 67 67 67 68 68 68 68 69 69 69 69 69 69 69 69 69 69 69 69 68 68 68 68 68 67 67 67 67 67 66 66 66 66 65 65 65 65 65 64 64 64 64 64 63 63 63 62 62 62 61 61 61 60 60 60 59 59 58 58 57 57 57 56 56 55 55 55 54 53 53 53 52 51 51 50 49 49 48 48 47 46 46 45 44 44 43 43 42 42 41 41 40 40 40 39 39 39 39 39 38 38 38 37 36 36 36 36 36 35 35 35 35 35 35 35 35 35 35 35 35 35 35 34 34 34 34 34 33 33 33 33 32 32 32 32 31 31 31 31 31 31 31 31 31 31 31 30 30 30 30 30 29 29 29 28 28 28 27 27 27 27 27 27 26 26 26 26 25 25 25 24 24 24 23 23 23 23 23 23 22 22 22 22 22 22 22 22 21 21 21 21 21 21 21 21 21 21 20 20 20 20 20 20 20 20 20 20 20 20 20 20 19 19 19 19 19 19 19 19 19 19 19 19 19 19 19 20 20 20 20 20 20 20
18 18 18 18 18 18 18 18 18 18 18 18 18 19 19 20 20 20 20 20 21 21 21 21 22 22 22 22 23 23 23 23 23 23 24 24 24 24 25 25 25 25 26 26 26 26 27 27 27 28 29 29 30 30 31 32 32 33 34 34 35 35 36 37 37 38 38 39 39 39 40 40 41 41 42 42 42 42 42 42 42 42 42 42 42 42 42 42 42 42 42 42 42 42 41 41 41 41 40 40 39 39 38 38 38 37 37 37 36 36 36 36 37 37 37 37 37 37 38 38 38 39 39 40 40 40 41 41 42 42 43 43 43 43 45 45 46 47 48 49 49 50 51 52 52 53 54 55 55 56 57 57 58 58 59 59 60 60 61 61 62 62 63 64 64 65 65 66 66 67 67 67 67 67 68 68 68 68 69 69 69 69 69 69 69 69 69 69 69 69 68 68 68 68 67 67 67 67 67 66 66 66 66 65 65 65 65 65 64 64 64 64 64 64 63 63 63 62 62 62 61 61 60 60 60 59 59 59 58 58 57 57 57 56 56 55 55 55 54 54 53 53 52 51 51 50 49 49 48 48 47 46 46 45 44 44 43 43 42 42 41 41 40 40 40 39 39 39 39 39 39 38 38 38 37 36 36 36 36 35 35 35 35 35 35 35 35 35 35 35 35 35 35 35 34 34 34 34 33 33 33 33 32 32 32 32 31 31 31 31 31 31 31 31 31 31 30 30 30 30 30 30 29 29 29 28 28 28 28 27 27 27 27 27 26 26 26 26 25 25 25 25 24 24 23 23 23 23 23 23 22 22 22 22 22 22 22 22 21 21 21 21 21 21 21 21 21 20 20 20 20 20 20 20 20 20 20 20 20 20 20 19 19 19 19 19 19 19 19 19 19 19 19 19 19 19 19 20 20 20 20 20 20 20
18 18 18 18 18 18 18 18 18 18 18 18 18 19 19 20 20 20 20 20 21 21 21 21 22 22 22 22 23 23 23 23 23 23 24 24 24 24 25 25 25 25 26 26 26 27 27 27 28 28 29 30 30 31 32 32 33 33 34 35 35 36 36 37 37 38 38 39 39 40 40 41 41 41 42 42 43 43 43 43 43 43 43 43 43 43 43 43 43 43 42 42 42 42 42 41 41 41 40 40 40 39 39 38 38 37 37 37 37 37 37 37 37 37 37 37 37 37 38 38 38 39 39 40 40 41 41 42 42 42 43 43 43 44 45 46 46 47 48 49 50 50 51 52 53 53 54 55 55 56 57 57 58 58 59 59 60 60 61 62 62 63 63 64 64 65 66 66 66 67 67 67 67 67 68 68 68 68 69 69 69 69 69 69 69 69 69 69 69 68 68 68 68 68 67 67 67 67 67 66 66 66 66 65 65 65 65 64 64 64 64 64 64 63 63 63 63 62 62 62 61 61 60 60 60 59 59 59 58 58 57 57 57 56 56 56 55 55 54 54 53 53 52 51 51 50 49 49 48 48 47 46 46 45 44 44 43 43 42 42 41 41 40 40 40 39 39 39 39 39 39 39 38 38 37 36 36 36 36 35 35 35 35 35 35 35 35 35 35 35 35 35 35 35 34 34 34 34 33 33 33 33 32 32 32 31 31 31 31 31 31 31 31 31 30 30 30 30 30 30 30 30 29 29 29 28 28 28 28 28 27 27 27 27 26 26 26 26 25 25 25 25 24 24 24 23 23 23 23 23 22 22 22 22 22 22 22 22 21 21 21 21 21 21 21 21 21 20 20 20 20 20 20 20 20 20 20 20 20 20 19 19 19 19 19 19 19 19 19 19 19 19 19 19 19 19 19 19 20 20 20 20 20 20
18 18 18 18 18 18 18 18 18 18 18 18 18 18 19 20 20 20 20 21 21 21 21 21 22 22 22 23 23 23 23 23 24 24 24 24 24 24 25 25 25 26 26 26 26 27 27 27 28 28 29 30 30 31 32 33 33 34 34 35 35 36 37 37 37 38 38 39 39 40 40 41 41 41 42 42 43 43 43 43 43 43 43 43 43 43 43 43 43 43 43 43 43 42 42 42 41 41 41 40 40 40 39 38 38 37 37 37 37 37 37 37 37 37 37 37 37 37 38 38 39 39 40 40 40 41 42 42 42 43 43 43 44 44 45 46 47 47 49 49 50 50 52 52 53 53 54 55 56 56 57 57 58 58 59 60 60 60 61 62 62 63 64 64 64 65 66 66 66 67 67 67 67 67 68 68 68 68 69 69 69 69 69 69 69 69 69 68 68 68 68 68 68 67 67 67 67 67 66 66 66 66 65 65 65 65 64 64 64 64 64 64 64 63 63 63 63 62 62 62 61 61 60 60 60 59 59 59 58 58 57 57 57 57 56 56 55 55 54 54 53 53 52 52 51 51 50 49 49 48 47 46 46 45 44 44 44 43 42 42 42 41 40 40 40 40 39 39 40 40 40 39 39 38 37 37 36 36 36 36 35 35 35 35 35 35 35 35 35 35 35 35 35 35 34 34 34 34 33 33 33 33 32 32 32 31 31 31 31 31 31 31 30 30 30 30 30 30 30 30 30 29 29 29 29 28 28 28 28 28 27 27 27 27 27 26 26 26 25 25 25 25 24 24 24 23 23 23 23 23 22 22 22 22 22 22 22 22 21 21 21 21 21 21 21 21 21 20 20 20 20 20 20 20 20 20 20 20 20 19 19 19 19 19 19 19 19 19 19 19 19 19 19 19 19 19 19 19 20 20 20 20 20 20
18 18 18 18 18 18 18 18 18 18 18 18 18 18 19 19 20 20 21 21 21 21 21 22 22 22 23 23 23 23 24 24 24 24 24 25 25 25 25 25 26 26 26 26 27 27 27 28 28 29 30 31 31 32 33 33 34 34 35 35 36 36 37 37 37 38 38 39 39 40 41 41 41 42 42 43 43 43 43 44 44 44 44 44 44 44 44 44 44 43 43 43 43 43 43 42 42 42 41 41 41 40 39 39 38 38 37 37 37 37 37 37 37 37 37 37 37 38 38 38 39 39 40 40 41 41 42 43 43 43 44 44 44 45 46 47 47 48 49 50 50 51 52 53 53 54 55 55 56 56 57 58 58 59 59 60 60 61 62 62 62 63 64 64 65 65 66 67 67 67 67 67 67 68 68 68 68 68 69 69 69 69 68 68 69 69 68 68 68 68 67 67 67 67 67 67 67 67 66 66 66 66 65 65 65 64 64 64 64 64 64 63 63 63 63 63 63 62 62 61 61 61 60 60 60 59 59 58 58 58 57 57 57 57 56 56 56 55 55 54 54 53 52 52 51 51 50 49 49 48 47 46 46 45 44 44 44 43 43 42 42 42 41 40 40 40 40 40 40 41 40 40 40 39 38 37 37 36 36 36 36 36 35 35 35 36 36 36 36 35 35 35 35 35 35 34 34 34 33 33 33 33 32 32 31 31 31 31 31 31 30 30 30 30 30 30 30 30 30 29 29 29 29 28 28 28 28 28 28 28 27 27 27 27 27 26 26 26 26 25 25 25 24 24 24 24 23 23 23 23 23 23 22 22 22 22 22 22 22 21 21 21 21 21 21 21 21 21 20 20 20 20 20 20 20 20 20 20 19 19 19 19 19 19 19 19 19 19 19 19 19 19 19 19 19 19 19 19 20 20 20 20 20 20
18 18 18 18 18 18 18 18 18 18 18 18 18 18 19 19 20 20 21 21 21 21 22 22 22 22 23 23 23 23 24 24 24 24 25 25 25 25 25 26 26 26 26 27 27 27 28 28 29 29 30 31 31 32 33 33 34 34 35 36 36 36 37 37 37 38 39 39 40 40 41 41 42 42 43 43 43 43 44 44 44 44 44 44 44 44 44 44 44 44 44 43 43 43 43 43 43 42 42 41 41 40 40 39 38 38 37 37 37 37 37 37 37 37 37 37 38 38 38 39 39 39 40 41 41 41 42 43 43 43 44 44 45 45 46 47 48 48 50 50 51 51 52 53 54 54 55 56 56 57 58 58 58 59 60 60 60 61 62 62 63 63 64 64 65 65 66 66 67 67 67 67 67 68 68 68 68 68 68 68 68 68 68 68 68 68 68 68 68 68 67 67 67 67 67 67 67 66 66 66 66 65 65 65 64 64 64 64 64 64 63 63 63 63 63 63 63 63 62 61 61 61 60 60 59 59 59 58 58 58 57 57 57 57 56 56 56 55 55 54 54 54 53 52 52 51 50 50 49 48 47 47 46 45 44 44 44 43 43 42 42 42 41 41 40 40 40 41 41 41 41 40 40 39 38 37 37 36 36 36 36 36 36 36 36 36 36 36 36 36 35 35 35 35 35 35 34 34 33 33 33 33 32 32 31 31 31 31 31 30 30 30 30 30 30 30 30 30 29 29 29 29 28 28 28 28 28 28 27 27 27 27 27 27 26 26 26 26 26 25 25 25 24 24 24 24 23 23 23 23 23 23 23 22 22 22 22 22 22 22 21 21 21 21 21 21 21 21 20 20 20 20 20 20 20 20 20 20 19 19 19 19 19 19 19 19 19 19 19 19 18 19 19 19 19 19 19 19 19 20 20 20 20 20
18 18 18 18 18 18 18 18 18 18 18 18 18 18 19 19 20 20 21 21 21 21 22 22 22 22 23 23 23 23 24 24 24 24 25 25 25 25 26 26 26 26 27 27 27 27 28 29 29 30 31 31 32 32 33 34 34 35 36 36 36 37 37 37 37 38 39 39 40 40 41 41 42 42 43 43 43 43 44 44 44 44 44 44 44 45 44 44 44 44 44 44 44 43 43 43 43 43 42 42 41 41 40 39 39 38 37 37 37 37 37 37 37 37 37 37 38 38 38 39 39 39 40 41 41 42 43 43 43 44 44 44 45 45 46 47 48 49 50 50 51 52 53 53 54 54 55 56 56 57 58 58 59 59 60 60 61 61 62 62 63 63 64 64 65 65 66 66 67 67 67 67 67 68 68 68 68 68 68 68 68 68 68 68 68 68 68 68 68 67 67 67 67 67 67 67 66 66 66 66 65 65 65 64 64 64 64 64 64 64 63 63 63 63 63 63 63 63 62 61 61 61 60 60 59 59 59 58 58 58 57 57 57 57 56 56 56 55 55 54 54 54 53 52 52 51 50 50 49 49 47 47 46 45 44 44 44 44 43 43 42 42 41 41 40 40 41 41 41 41 41 41 40 40 38 38 37 37 36 36 36 36 36 36 36 36 36 36 36 36 36 36 35 35 35 35 35 34 33 33 33 33 32 32 31 31 31 31 31 30 30 30 30 30 30 30 30 29 29 29 29 29 28 28 28 28 28 27 27 27 27 27 27 27 26 26 26 26 26 25 25 25 24 24 24 24 23 23 23 23 23 23 23 23 22 22 22 22 22 22 21 21 21 21 21 21 21 21 21 20 20 20 20 20 20 20 20 19 19 19 19 19 19 19 19 19 19 19 19 19 18 18 19 19 19 19 19 19 19 20 20 20 20 20
18 18 18 18 18 18 18 18 18 18 18 18 18 18 19 19 20 20 21 21 21 22 22 22 22 22 23 23 23 24 24 24 24 24 25 25 25 25 26 26 26 26 27 27 27 27 28 29 29 30 31 32 32 33 34 34 35 35 36 36 37 37 37 37 38 38 39 39 40 40 41 42 42 42 43 43 43 44 44 44 44 45 45 45 45 45 45 45 45 45 44 44 44 44 44 44 44 43 42 42 42 41 40 40 39 38 38 37 37 37 37 37 37 37 38 38 38 38 38 39 39 40 40 41 41 42 43 43 43 44 44 44 45 45 47 47 48 49 50 51 51 52 53 54 54 55 56 56 57 57 58 58 59 59 60 60 61 61 62 62 63 63 64 65 65 65 66 66 67 67 67 67 67 68 68 68 68 68 68 68 68 68 68 68 68 68 68 68 68 67 67 67 67 67 67 66 66 66 66 66 65 65 65 64 64 64 64 64 63 63 63 63 63 63 63 63 63 63 62 61 61 60 60 60 59 59 58 58 58 58 57 57 57 57 56 56 56 56 55 55 54 54 53 52 52 51 50 50 49 49 47 47 46 45 44 44 44 44 43 43 43 42 41 41 41 40 41 41 41 41 41 41 40 40 39 38 37 37 36 36 36 36 36 36 36 36 36 36 36 36 36 36 36 35 35 35 35 34 33 33 33 33 32 32 31 31 31 31 31 30 30 30 30 30 30 30 29 29 29 29 29 29 28 28 28 28 27 27 27 27 27 27 27 27 26 26 26 26 26 25 25 25 24 24 24 24 23 23 23 23 23 23 23 23 22 22 22 22 22 22 22 22 21 21 21 21 21 21 21 21 20 20 20 20 20 20 19 19 19 19 19 19 19 19 19 19 19 19 19 18 18 18 19 19 19 19 19 19 19 20 20 20 20 20
18 18 18 18 18 18 18 18 18 18 18 18 18 18 19 20 20 21 21 22 22 22 22 23 23 23 23 24 24 24 24 25 25 25 25 25 25 26 26 26 26 27 27 27 28 28 29 30 30 31 32 32 33 33 34 35 35 36 37 37 37 38 38 38 38 39 40 40 41 41 42 42 42 43 43 44 44 44 45 45 45 45 45 46 46 46 46 46 46 46 45 45 45 45 45 45 44 44 43 43 42 42 41 40 40 39 38 38 38 38 38 38 38 38 38 38 38 38 39 39 39 40 41 41 42 42 43 43 44 44 44 45 45 46 47 48 49 50 51 52 52 53 54 54 55 55 56 57 57 58 58 59 59 60 60 61 61 61 62 63 63 64 64 65 65 65 66 66 67 67 67 67 67 68 68 68 68 68 68 68 68 68 68 68 68 68 67 67 67 67 67 67 67 67 66 66 66 66 65 65 65 65 64 64 64 64 63 63 63 63 63 63 63 63 63 63 63 62 61 61 60 60 60 59 59 59 58 58 58 58 57 57 57 57 56 56 56 56 55 55 55 54 53 53 52 52 51 50 50 49 48 47 47 46 45 45 44 44 44 43 43 43 42 42 41 41 41 42 42 42 41 41 41 40 39 39 38 38 37 36 36 36 36 36 36 36 36 36 36 36 36 36 36 36 35 35 35 35 34 33 33 33 32 32 32 31 31 31 31 30 30 30 30 30 30 29 29 29 29 29 28 28 28 28 28 27 27 27 27 27 27 27 27 27 26 26 26 26 26 25 25 25 25 24 24 24 24 24 23 23 23 23 23 23 23 23 23 23 22 22 22 22 22 22 21 21 21 21 21 21 20 20 20 20 20 19 19 19 19 19 19 19 19 19 19 19 19 19 19 18 18 18 18 19 19 19 19 19 19 20 20 20 20 20
18 18 18 18 18 18 18 18 18 18 18 18 18 19 19 20 20 21 21 22 22 22 23 23 23 23 24 24 24 24 25 25 25 25 25 25 26 26 26 26 27 27 27 27 28 28 30 30 31 31 32 32 33 33 34 35 35 36 37 37 38 38 38 38 39 39 40 40 41 41 42 42 43 43 44 44 44 44 45 45 45 45 46 46 46 46 46 46 46 46 45 45 45 45 45 45 45 44 43 43 43 42 41 40 40 39 38 38 38 38 38 38 38 38 38 38 38 38 39 39 40 40 41 41 42 42 43 43 44 44 45 45 45 46 48 49 49 50 52 52 53 53 54 55 55 56 56 57 57 58 59 59 60 60 61 61 61 62 63 63 63 64 64 65 65 65 66 66 67 67 67 67 67 68 68 68 68 68 68 68 68 68 68 68 68 67 67 67 67 67 67 67 67 66 66 66 66 66 65 65 65 65 64 64 64 64 63 63 63 63 63 63 63 63 63 63 63 62 61 60 60 60 59 59 59 59 58 58 58 57 57 57 57 57 56 56 56 56 56 55 55 55 53 53 52 52 51 50 50 49 48 48 47 46 45 45 45 45 44 44 43 43 42 42 42 42 42 42 42 42 41 41 41 40 39 39 38 38 37 36 36 36 36 37 37 37 37 37 37 36 36 36 36 36 36 35 35 35 34 33 33 33 32 32 32 31 31 31 31 30 30 30 30 30 30 29 29 29 29 28 28 28 28 28 27 27 27 27 27 27 27 27 27 27 26 26 26 26 26 26 25 25 25 25 24 24 24 24 23 23 23 23 23 23 23 23 23 23 23 22 22 22 22 22 22 22 21 21 21 21 21 20 20 20 20 20 19 19 19 19 19 19 19 19 19 19 19 19 18 18 18 18 18 19 19 19 19 19 19 19 20 20 20 20
18 18 18 18 18 18 18 18 18 18 18 18 19 19 20 20 21 21 22 22 22 23 23 23 23 24 24 24 24 25 25 25 25 25 25 26 26 26 26 26 27 27 27 28 28 29 30 30 31 31 32 33 33 34 35 35 36 36 37 38 38 38 39 39 39 39 40 41 41 42 42 43 43 43 44 44 45 45 45 45 46 46 46 46 46 47 47 46 46 46 46 46 46 45 45 45 45 44 44 43 43 42 41 41 40 40 39 38 38 38 38 38 38 38 38 38 39 39 39 39 40 40 41 41 42 42 43 44 44 44 45 45 46 47 48 49 50 51 52 53 53 54 54 55 55 56 57 57 58 58 59 59 60 60 61 61 62 62 63 63 63 64 65 65 65 66 66 66 67 67 67 67 68 68 68 68 68 68 68 68 68 68 67 67 67 67 67 67 67 67 67 67 66 66 66 66 66 66 65 65 65 64 64 64 64 64 63 63 63 63 63 63 63 63 63 63 62 62 61 60 60 60 59 59 59 58 58 58 57 57 57 57 57 57 56 56 56 56 56 56 55 55 54 53 53 52 51 50 50 49 48 48 47 47 46 45 45 45 44 44 44 43 43 43 42 42 42 42 42 42 42 41 41 41 40 39 39 38 37 37 37 37 37 37 37 37 37 37 37 37 36 36 36 36 36 35 35 35 34 33 33 33 32 32 32 31 31 31 31 30 30 30 30 30 29 29 29 29 29 28 28 28 28 28 28 27 27 27 27 27 27 27 27 27 26 26 26 26 26 26 25 25 25 25 24 24 24 24 24 24 23 23 23 23 23 23 23 23 23 23 22 22 22 22 22 22 21 21 21 21 21 21 20 20 20 20 19 19 19 19 19 19 19 19 19 19 19 19 18 18 18 18 18 19 19 19 19 19 19 19 20 20 20 20
18 18 18 18 18 18 18 18 18 18 18 19 19 19 20 21 21 21 22 22 23 23 23 24 24 24 24 24 25 25 25 25 25 26 26 26 26 26 26 27 27 27 28 28 29 29 30 31 31 32 33 33 34 34 35 35 36 36 38 38 39 39 39 39 39 40 41 41 41 42 43 43 43 44 44 45 45 45 46 46 46 46 47 47 47 47 47 47 47 47 46 46 46 46 45 45 45 45 44 44 43 43 42 41 41 40 39 39 38 38 38 38 39 39 39 39 39 39 39 40 40 40 41 42 42 42 43 44 44 44 45 45 46 47 49 50 50 51 53 53 54 54 55 55 56 56 57 57 58 58 59 60 60 60 61 61 62 62 63 63 64 64 65 65 65 66 66 66 67 67 67 67 68 68 68 68 68 68 68 67 67 67 67 67 67 67 67 67 67 67 67 66 66 66 66 66 66 65 65 65 65 64 64 64 63 63 63 63 63 63 63 63 63 63 63 62 62 61 61 60 60 60 59 59 59 58 58 58 57 57 57 57 57 57 56 56 56 56 56 56 56 55 54 53 53 52 51 51 50 50 49 48 48 47 46 46 45 45 45 44 44 44 43 43 43 43 42 42 42 42 42 42 41 41 40 40 39 39 37 37 37 37 37 37 37 37 37 37 37 37 37 36 36 36 36 35 35 35 34 34 33 33 32 32 32 32 31 31 31 30 30 30 30 30 29 29 29 29 28 28 28 28 28 28 28 27 27 27 27 27 27 27 27 27 26 26 26 26 26 26 26 25 25 25 25 24 24 24 24 24 24 23 23 23 23 23 23 23 23 23 23 23 22 22 22 22 22 21 21 21 21 21 20 20 20 20 20 19 19 19 19 19 19 19 19 19 19 18 18 18 18 18 18 18 19 19 19 19 19 19 19 20 20 20
18 18 18 18 18 18 18 18 18 18 19 19 20 20 21 21 22 22 23 23 23 24 24 24 25 25 25 25 25 26 26 26 26 26 26 26 26 26 27 27 27 27 28 29 30 30 31 32 32 32 33 34 34 34 35 36 36 37 38 38 39 39 40 40 40 41 41 42 42 42 43 44 44 44 45 45 46 46 46 46 47 47 47 47 48 48 48 47 47 47 47 47 47 47 46 46 46 45 45 44 44 43 42 42 41 41 40 39 39 39 39 39 39 39 39 39 39 40 40 40 41 41 41 42 42 43 44 44 45 45 46 47 47 48 50 50 51 52 54 55 55 55 56 56 56 57 58 58 58 59 60 60 60 61 62 62 62 63 63 64 64 64 65 65 65 66 66 67 67 67 67 68 68 68 68 68 68 68 67 67 67 67 67 67 67 67 67 67 67 66 66 66 66 66 66 65 65 65 65 64 64 64 63 63 63 63 63 63 63 63 63 62 62 62 62 62 61 61 60 60 60 60 59 59 59 58 57 57 57 57 57 57 57 57 56 56 56 56 56 56 56 55 54 53 53 52 51 51 50 50 49 49 48 48 47 47 46 46 45 45 45 44 44 44 43 43 43 43 42 42 42 42 41 41 40 40 40 39 38 38 38 37 38 38 38 38 37 37 37 37 37 37 37 36 36 36 35 35 34 34 34 33 33 32 32 32 31 31 31 31 30 30 30 30 29 29 29 29 28 28 28 28 28 28 28 27 27 27 27 27 27 27 27 27 26 26 26 26 26 26 26 26 25 25 25 24 24 24 24 24 24 24 23 23 23 23 23 23 23 23 23 23 22 22 22 22 22 22 21 21 21 21 21 20 20 20 20 20 19 19 19 19 19 19 19 19 19 18 18 18 18 18 18 18 19 19 19 19 19 19 19 20 20 20
18 18 18 18 18 18 18 18 18 19 19 20 20 20 21 22 22 22 23 23 24 24 24 25 25 25 25 26 26 26 26 26 26 26 26 26 26 27 27 27 27 28 29 30 30 31 32 32 32 33 33 34 34 35 36 36 36 37 38 38 39 39 40 40 41 41 42 42 42 43 43 44 44 45 45 46 46 46 47 47 47 47 48 48 48 48 48 48 48 48 47 47 47 47 46 46 46 46 45 45 44 44 43 42 42 41 40 40 39 39 39 39 39 39 40 40 40 40 40 41 41 41 42 42 42 43 44 45 45 46 47 47 48 49 50 51 52 53 54 55 55 55 56 56 57 57 58 58 59 59 60 60 61 61 62 62 62 63 63 64 64 64 65 65 66 66 66 67 67 67 67 68 68 68 68 67 67 67 67 67 67 67 67 67 67 67 66 66 66 66 66 66 66 66 65 65 65 65 64 64 64 64 63 63 63 63 63 62 62 62 62 62 62 62 61 61 61 61 60 60 60 59 59 59 59 58 58 57 57 57 57 57 57 57 56 56 56 56 56 56 56 55 54 53 53 52 51 51 50 50 49 49 48 48 47 47 46 46 46 45 45 45 44 44 44 43 43 43 43 42 42 42 42 41 41 40 40 40 39 38 38 38 38 38 38 38 38 38 37 37 37 37 37 37 36 36 35 35 34 34 34 33 33 32 32 32 31 31 31 31 30 30 30 30 29 29 29 29 28 28 28 28 28 28 28 27 27 27 27 27 27 27 27 27 26 26 26 26 26 26 26 26 25 25 25 25 25 24 24 24 24 24 23 23 23 23 23 23 23 23 23 23 23 22 22 22 22 22 22 21 21 21 21 21 20 20 20 20 19 19 19 19 19 19 19 19 18 18 18 18 18 18 18 18 19 19 19 19 19 19 19 20 20 20
18 18 18 18 18 18 18 19 19 19 20 20 20 21 22 22 22 23 23 24 24 24 25 25 25 26 26 26 26 26 26 26 26 26 26 27 27 27 27 27 27 28 29 30 31 31 32 32 33 33 34 34 35 35 36 36 37 37 38 39 39 39 40 40 41 41 42 42 43 43 44 44 44 45 46 46 46 46 47 47 47 48 48 48 48 48 48 48 48 48 48 48 47 47 47 47 46 46 45 45 44 44 43 43 42 42 41 40 40 40 40 40 40 40 40 40 40 40 41 41 41 41 42 42 43 43 45 45 46 46 47 48 48 49 51 51 52 53 54 55 55 55 56 56 57 57 58 58 59 59 60 60 61 61 62 62 63 63 64 64 64 65 65 65 66 66 66 67 67 67 67 67 67 67 67 67 67 67 67 67 67 67 67 67 66 66 66 66 66 66 66 66 66 66 65 65 65 65 64 64 64 63 63 63 63 63 62 62 62 62 62 62 61 61 61 61 60 60 60 60 60 59 59 59 59 58 58 57 57 57 57 57 57 56 56 56 56 56 56 56 55 55 54 53 53 52 51 51 51 50 49 49 49 48 47 47 47 46 46 45 45 45 44 44 44 44 43 43 43 43 42 42 42 41 41 41 40 40 39 39 39 39 38 38 38 38 38 38 38 38 37 37 37 37 36 36 36 35 35 34 34 33 33 33 32 32 32 31 31 31 31 30 30 30 29 29 29 29 28 28 28 28 28 28 28 27 27 27 27 27 27 27 27 27 26 26 26 26 26 26 26 26 25 25 25 25 25 24 24 24 24 24 24 23 23 23 23 23 23 23 23 23 23 23 22 22 22 22 22 21 21 21 21 21 20 20 20 20 19 19 19 19 19 19 19 19 18 18 18 18 18 18 18 18 18 19 19 19 19 19 19 19 20 20
18 18 18 18 18 18 19 19 19 20 20 20 21 21 22 22 23 23 24 24 24 25 25 26 26 26 26 26 26 26 27 27 27 27 27 27 27 27 27 27 28 29 30 31 31 32 32 33 33 33 34 34 35 35 36 36 37 37 38 39 39 39 40 41 41 42 42 43 43 43 44 44 45 45 46 46 46 47 47 47 48 48 48 48 49 49 49 49 48 48 48 48 48 48 47 47 47 46 46 45 45 44 43 43 42 42 41 41 41 41 40 40 40 40 40 41 41 41 41 41 42 42 42 43 43 44 45 46 46 47 48 48 49 49 51 52 52 53 54 55 55 55 56 57 57 57 58 59 59 60 60 61 61 61 62 62 63 63 64 64 64 65 65 65 66 66 66 67 67 67 67 67 67 67 67 67 67 67 67 67 67 67 66 66 66 66 66 66 66 66 66 66 66 66 65 65 65 64 64 64 63 63 63 63 62 62 62 62 62 61 61 61 61 61 60 60 60 60 60 59 59 59 59 59 59 58 58 57 57 57 57 57 57 56 56 56 56 56 56 56 55 55 54 53 53 52 51 51 51 50 49 49 49 48 48 47 47 47 46 46 45 45 45 44 44 44 43 43 43 43 42 42 42 42 41 41 41 40 40 39 39 39 39 39 38 38 38 38 38 38 37 37 37 37 36 36 36 35 35 34 34 34 33 33 33 32 32 32 31 31 31 30 30 30 29 29 29 29 28 28 28 28 28 28 28 27 27 27 27 27 27 27 27 27 26 26 26 26 26 26 26 26 25 25 25 25 25 24 24 24 24 24 24 23 23 23 23 23 23 23 23 23 23 23 22 22 22 22 22 22 21 21 21 21 21 20 20 20 19 19 19 19 19 19 19 19 18 18 18 18 18 18 18 18 18 19 19 19 19 19 19 19 20 20
18 18 18 18 19 19 20 20 20 20 21 21 22 22 23 23 23 23 24 24 25 25 26 26 26 26 27 27 27 27 27 27 27 27 27 27 27 27 28 29 29 30 31 32 32 33 33 33 34 34 34 35 35 36 36 37 37 37 38 39 39 40 41 41 42 42 43 43 43 44 45 45 45 46 46 47 47 47 48 48 48 48 49 49 49 49 49 49 49 49 49 49 48 48 48 48 47 47 46 46 46 45 44 44 43 43 42 42 42 41 41 41 41 41 41 41 41 41 42 42 42 43 44 44 44 45 46 46 47 47 49 49 50 50 52 52 53 54 55 55 55 56 57 57 57 58 59 59 60 60 61 61 62 62 63 63 63 63 64 64 65 65 65 66 66 66 66 67 67 67 67 67 67 67 67 67 67 67 66 66 66 66 66 66 66 66 66 65 65 65 65 65 66 65 65 64 64 64 63 63 63 62 62 62 62 62 61 61 61 61 60 60 60 60 60 59 59 59 59 59 59 59 59 59 59 58 58 58 57 57 57 57 56 56 56 56 56 55 55 55 55 54 53 53 53 52 51 51 51 50 50 49 49 49 48 48 47 47 46 46 46 46 45 45 45 44 44 44 43 43 43 42 42 42 42 41 41 41 41 40 40 40 39 39 39 39 39 38 38 38 38 38 37 37 37 36 36 36 35 35 34 34 33 33 33 33 32 32 32 32 31 31 31 30 30 30 29 29 29 29 28 28 28 28 28 27 27 27 27 27 27 27 27 27 26 26 26 26 26 26 26 26 25 25 25 25 25 25 24 24 24 24 24 24 23 23 23 23 23 23 23 23 23 23 23 22 22 22 22 22 21 21 21 21 21 20 20 20 19 19 19 19 19 19 19 19 18 18 18 18 18 18 18 18 18 19 19 19 19 19 19 19 19 20
18 18 18 19 19 20 20 20 21 21 21 22 22 22 23 23 24 24 24 25 25 25 26 26 26 27 27 27 27 27 27 27 27 27 27 28 28 28 29 30 30 31 32 32 32 33 33 34 34 34 35 35 35 36 36 37 37 37 38 39 39 40 41 41 42 42 43 43 44 44 45 45 46 46 47 47 47 47 48 48 48 49 49 49 49 49 50 49 49 49 49 49 49 49 48 48 48 47 47 46 46 45 45 44 44 43 43 42 42 42 42 41 41 41 41 41 42 42 42 42 43 43 44 45 45 45 46 47 47 48 49 49 50 51 52 52 53 54 55 55 56 56 57 57 58 58 59 59 60 60 61 61 62 62 63 63 63 64 64 64 65 65 66 66 66 66 66 67 67 67 67 67 67 67 67 67 67 67 66 66 66 66 66 66 66 65 65 65 65 65 65 65 65 65 64 64 64 63 63 63 62 62 62 62 61 61 61 61 60 60 60 60 60 60 59 59 59 59 59 59 59 59 59 59 59 58 58 58 58 57 57 56 56 56 56 56 55 55 55 55 54 54 53 53 53 52 51 51 51 50 50 49 49 49 48 48 47 47 47 46 46 46 45 45 45 44 44 44 44 43 43 43 42 42 42 42 41 41 41 41 40 40 40 39 39 39 39 39 39 38 38 38 38 37 37 36 36 36 35 35 35 34 34 33 33 33 33 32 32 32 31 31 31 31 30 30 29 29 29 29 29 28 28 28 28 27 27 27 27 27 27 27 27 27 26 26 26 26 26 26 26 26 26 25 25 25 25 25 24 24 24 24 24 24 23 23 23 23 23 23 23 23 23 23 23 22 22 22 22 22 21 21 21 21 21 20 20 20 19 19 19 19 19 19 19 19 19 18 18 18 18 18 18 18 18 18 19 19 19 19 19 19 19 19
18 18 18 19 20 20 21 21 21 21 22 22 22 23 23 24 24 24 25 25 25 26 26 26 27 27 27 27 27 27 27 27 27 28 28 28 28 29 30 30 31 31 32 32 33 33 33 34 34 34 35 35 35 36 36 37 37 37 38 39 40 40 41 41 42 42 43 44 44 44 45 45 46 46 47 47 47 48 48 49 49 49 49 50 50 50 50 50 50 50 49 49 49 49 48 48 48 48 47 47 46 46 45 45 44 44 43 43 43 42 42 42 42 42 42 42 42 42 42 43 43 44 45 45 45 46 47 47 48 48 49 50 50 51 52 53 53 54 55 55 56 56 57 58 58 58 59 60 60 61 61 62 62 62 63 63 64 64 64 65 65 65 66 66 66 66 67 67 67 67 67 67 67 67 67 67 66 66 66 66 66 66 66 65 65 65 65 65 65 65 65 65 64 64 64 64 63 63 63 62 62 62 61 61 61 61 60 60 60 60 60 59 59 59 59 59 59 58 58 58 58 58 59 59 58 58 58 58 58 57 57 56 56 56 56 55 55 55 55 54 54 54 53 53 52 52 51 51 51 50 50 49 49 49 48 48 48 47 47 46 46 46 45 45 45 45 44 44 44 43 43 43 43 42 42 42 42 42 41 41 41 41 40 40 40 39 39 39 39 39 38 38 38 38 37 37 36 36 35 35 35 34 34 34 34 33 33 32 32 32 31 31 31 31 30 30 30 29 29 29 29 29 28 28 28 28 27 27 27 27 27 27 27 27 26 26 26 26 26 26 26 26 26 25 25 25 25 25 25 24 24 24 24 24 23 23 23 23 23 23 23 23 23 23 23 23 22 22 22 22 21 21 21 21 21 20 20 20 19 19 19 19 19 19 19 19 19 18 18 18 18 18 18 18 18 18 19 19 19 19 19 19 19 19
18 18 18 20 21 21 21 21 21 22 22 22 22 23 24 24 24 24 25 25 25 26 26 27 27 27 27 27 27 27 27 28 28 28 29 29 29 29 30 31 31 32 32 32 33 33 34 34 34 34 35 35 36 36 36 37 37 37 39 39 40 40 41 42 42 43 43 44 44 45 45 46 46 46 47 47 48 48 49 49 49 49 50 50 50 50 50 50 50 50 50 50 49 49 49 49 48 48 47 47 47 46 45 45 45 44 44 43 43 43 42 42 42 42 42 42 42 42 43 43 44 44 45 46 46 46 47 48 48 49 50 50 51 51 52 53 54 54 55 56 56 56 57 58 58 59 59 60 60 61 62 62 62 63 63 63 64 64 64 65 65 65 66 66 66 66 67 67 67 67 67 67 67 67 67 66 66 66 66 66 66 66 65 65 65 65 65 65 65 64 64 64 64 64 63 63 63 63 62 62 62 61 61 61 61 60 60 60 60 60 59 59 59 59 58 58 58 58 58 58 58 58 58 58 58 58 58 58 58 57 57 56 56 56 55 55 55 55 54 54 54 54 53 53 52 52 51 51 51 50 50 49 49 49 48 48 48 47 47 47 46 46 46 45 45 45 44 44 44 44 43 43 43 43 42 42 42 42 42 42 41 41 40 40 40 40 39 39 39 39 39 38 38 38 37 37 36 36 36 35 35 35 34 34 34 33 33 33 32 32 32 31 31 31 30 30 30 30 29 29 29 29 28 28 28 28 27 27 27 27 27 27 27 27 26 26 26 26 26 26 26 26 26 25 25 25 25 25 25 24 24 24 24 24 23 23 23 23 23 23 23 23 23 23 23 23 22 22 22 22 21 21 21 21 21 20 20 20 20 19 19 19 19 19 19 19 19 18 18 18 18 18 18 18 18 18 19 19 19 19 19 19 19 19
18 18 19 20 22 22 22 22 22 22 23 23 23 24 24 25 25 25 26 26 26 26 27 27 27 27 27 28 28 28 28 29 29 29 30 30 30 31 31 32 32 32 32 33 33 33 34 34 35 35 36 36 36 36 37 37 37 38 39 40 40 41 42 42 43 43 44 44 45 45 46 46 47 47 48 48 48 49 49 49 50 50 50 50 51 51 51 51 51 51 50 50 50 50 49 49 49 49 48 48 47 47 46 46 45 45 44 44 44 43 42 42 42 42 42 43 43 43 44 44 45 45 46 46 47 47 48 49 49 49 50 51 51 52 53 54 54 55 55 56 56 57 58 58 59 59 60 60 61 61 62 62 63 63 63 64 64 64 65 65 65 65 66 66 66 66 66 67 67 67 67 67 67 67 66 66 66 66 66 66 65 65 65 65 65 64 64 64 64 64 63 63 63 63 63 62 62 62 61 61 61 61 60 60 60 60 59 59 59 59 58 58 58 58 58 57 57 57 57 57 57 57 58 58 58 58 58 58 57 57 56 56 56 55 55 55 55 54 54 54 53 53 53 52 52 52 51 51 51 50 50 50 49 49 49 48 48 48 47 47 47 46 46 46 45 45 45 44 44 44 43 43 43 43 43 42 42 42 42 42 42 41 41 40 40 40 39 39 39 39 39 39 39 38 37 37 37 36 36 36 35 35 34 34 34 34 33 33 33 33 32 32 32 31 31 31 30 30 30 30 29 29 29 29 28 28 28 27 27 27 27 27 27 27 26 26 26 26 26 26 26 26 26 25 25 25 25 25 25 25 24 24 24 24 23 23 23 23 23 23 23 23 23 23 23 22 22 22 22 22 21 21 21 21 21 20 20 20 20 19 19 19 19 19 19 19 19 18 18 18 18 18 18 18 18 18 19 19 19 19 19 19 19 19
18 18 19 21 22 23 23 23 23 23 23 23 24 24 25 25 25 26 26 26 26 26 27 27 27 27 28 28 28 28 29 29 29 29 30 30 31 31 32 32 32 32 33 33 33 34 34 35 35 35 36 36 36 37 37 37 37 38 39 40 40 41 42 42 43 43 44 45 45 46 46 47 47 47 48 48 49 49 49 50 50 50 51 51 51 51 51 51 51 51 51 51 50 50 50 49 49 49 48 48 47 47 46 46 46 45 45 45 44 44 43 43 43 43 43 43 43 44 45 45 45 46 47 47 47 48 48 49 49 50 51 51 52 52 53 54 54 55 56 56 57 57 58 58 59 59 60 61 61 61 62 63 63 63 64 64 64 64 65 65 65 65 66 66 66 66 66 67 67 67 67 67 67 66 66 66 66 66 66 65 65 65 65 64 64 64 64 64 63 63 63 63 63 63 62 62 62 61 61 61 60 60 60 59 59 59 59 59 59 58 58 58 58 57 57 57 57 57 56 56 56 57 57 58 58 58 57 57 57 57 56 56 55 55 55 55 54 54 54 53 53 53 53 52 52 52 51 51 50 50 50 50 50 49 49 48 48 48 47 47 47 46 46 46 45 45 45 44 44 44 44 43 43 43 43 43 42 42 42 42 42 41 41 40 40 40 40 39 39 39 39 39 39 38 37 37 37 37 36 36 35 35 35 34 34 34 33 33 33 33 32 32 32 32 31 31 31 30 30 30 30 29 29 29 29 28 28 28 27 27 27 27 27 27 26 26 26 26 26 26 26 26 26 25 25 25 25 25 25 25 24 24 24 24 24 23 23 23 23 23 23 23 23 23 23 22 22 22 22 22 21 21 21 21 21 20 20 20 20 19 19 19 19 19 19 19 19 18 18 18 18 18 18 18 18 18 18 19 19 19 19 19 19 19
18 18 19 21 23 23 23 23 23 23 24 24 24 25 25 26 26 26 26 26 27 27 27 27 27 27 28 28 28 29 29 29 30 30 31 31 31 32 32 32 32 32 33 33 34 34 35 35 35 35 36 36 37 37 37 37 38 38 39 40 41 41 42 43 43 44 44 45 45 46 47 47 47 48 48 49 49 49 50 50 50 50 51 51 51 52 52 51 51 51 51 51 51 50 50 50 49 49 48 48 48 47 47 46 46 46 45 45 45 44 43 43 43 43 44 44 44 44 45 46 46 46 47 47 48 48 49 49 50 50 51 51 52 53 54 54 55 55 56 56 57 57 58 59 59 60 60 61 61 62 62 63 63 63 64 64 64 65 65 65 65 66 66 66 66 66 66 67 67 67 67 67 67 66 66 66 66 66 65 65 65 65 64 64 64 64 63 63 63 63 63 63 62 62 62 62 61 61 60 60 60 60 59 59 59 59 59 58 58 58 58 57 57 57 57 56 56 56 56 56 56 56 57 57 57 57 57 57 57 56 56 56 55 55 55 54 54 54 53 53 53 53 52 52 52 52 51 51 50 50 50 50 50 49 49 49 48 48 47 47 47 47 46 46 46 45 45 45 44 44 44 43 43 43 43 43 42 42 42 42 42 41 41 40 40 40 40 39 39 39 39 39 39 38 38 37 37 37 36 36 36 35 35 35 34 34 34 33 33 33 32 32 32 32 31 31 31 31 30 30 30 30 29 29 29 29 28 28 28 27 27 27 27 27 26 26 26 26 26 26 26 26 26 25 25 25 25 25 25 25 24 24 24 24 24 23 23 23 23 23 23 23 23 23 23 22 22 22 22 22 21 21 21 21 20 20 20 20 20 19 19 19 19 19 19 19 19 18 18 18 18 18 18 18 18 18 18 19 19 19 19 19 19 19
18 18 19 22 24 24 24 24 24 24 24 25 25 25 26 26 26 27 27 27 27 27 27 27 27 28 28 29 29 29 29 30 30 30 31 31 32 32 32 32 32 33 33 33 34 34 35 35 35 36 36 37 37 37 37 37 38 39 40 40 41 41 42 43 43 44 45 45 46 46 47 47 48 48 49 49 49 50 50 50 51 51 51 51 52 52 52 52 52 52 51 51 51 51 50 50 50 49 49 48 48 48 47 47 47 46 46 46 45 45 44 44 44 44 44 45 45 45 46 46 47 47 48 48 48 49 49 50 50 50 51 52 52 53 54 54 55 55 56 56 57 57 58 59 59 60 61 61 61 62 62 63 63 63 64 64 64 65 65 65 65 66 66 66 66 66 66 67 67 67 67 67 66 66 66 66 66 66 65 65 65 65 64 64 64 63 63 63 63 62 62 62 62 62 61 61 61 61 60 60 60 59 59 59 58 58 58 58 58 58 57 57 57 56 56 56 56 56 56 56 56 56 56 56 57 57 57 56 56 56 56 55 55 55 54 54 54 54 53 53 53 53 52 52 52 52 51 51 50 50 50 50 50 49 49 49 48 48 48 47 47 47 46 46 46 45 45 45 45 44 44 44 43 43 43 43 42 42 42 42 42 41 41 40 40 40 40 39 39 39 39 39 39 38 38 37 37 37 36 36 36 35 35 35 35 34 34 34 33 33 33 32 32 32 32 31 31 31 30 30 30 30 29 29 29 29 28 28 28 28 27 27 27 27 27 26 26 26 26 26 26 26 26 25 25 25 25 25 25 25 24 24 24 24 24 23 23 23 23 23 23 23 23 23 23 22 22 22 22 22 21 21 21 21 20 20 20 20 19 19 19 19 19 19 19 19 19 18 18 18 18 18 18 18 18 18 18 19 19 19 19 19 19 19
18 19 20 23 25 25 25 25 25 25 25 26 26 27 27 27 27 28 28 28 28 28 28 28 28 29 29 29 29 30 30 30 31 31 32 32 32 32 32 32 32 33 34 34 34 35 35 36 36 36 37 37 37 37 37 38 39 39 40 41 42 42 43 44 44 45 45 46 46 47 48 48 48 49 49 50 50 50 51 51 51 51 52 52 52 52 53 52 52 52 52 52 52 51 51 51 50 50 49 49 48 48 48 47 47 47 47 47 46 46 46 46 46 46 46 46 47 47 47 48 48 48 49 49 49 50 50 51 51 51 52 52 53 53 54 55 55 55 56 57 57 58 59 59 60 60 61 62 62 62 63 63 63 64 64 64 65 65 65 65 66 66 66 66 66 66 66 67 67 67 67 67 66 66 66 66 66 65 65 65 65 64 64 64 63 63 62 62 62 62 62 61 61 61 61 60 60 60 59 59 59 58 58 58 58 58 58 58 58 57 57 57 56 56 56 56 56 56 56 56 56 56 56 56 56 56 56 56 56 56 55 55 55 55 54 54 54 53 53 53 53 53 52 52 52 51 51 51 50 50 50 50 50 50 49 49 49 48 48 47 47 47 46 46 46 46 45 45 45 45 44 44 43 43 43 42 42 42 42 41 41 41 40 40 40 40 39 39 39 39 39 39 38 38 38 37 37 37 36 36 36 36 35 35 35 35 34 34 34 33 33 33 32 32 32 32 31 31 31 31 30 30 30 30 29 29 29 28 28 28 28 27 27 27 27 27 27 26 26 26 26 26 26 25 25 25 25 25 25 25 24 24 24 24 24 24 23 23 23 23 23 23 23 23 22 22 22 22 22 21 21 21 21 21 20 20 20 20 19 19 19 19 19 19 19 19 19 18 18 18 18 18 18 18 18 18 18 18 19 19 19 19 19 19
